ply
format ascii 1.0
comment VCGLIB generated
element vertex 1094
property float x
property float y
property float z
property uchar red
property uchar green
property uchar blue
property uchar alpha
element face 0
property list uchar int vertex_indices
end_header
0.072571 -0.270174 0.946194 157 168 153 255 
0.072488 -0.272438 0.943827 161 174 159 255 
0.072174 -0.273821 0.941406 165 178 165 255 
0.072092 -0.276065 0.939107 167 179 173 255 
0.071932 -0.278006 0.936595 165 175 164 255 
0.071773 -0.279937 0.934103 164 174 165 255 
0.071383 -0.280949 0.93163 160 170 159 255 
0.071301 -0.283154 0.929507 160 170 159 255 
0.071064 -0.284738 0.927384 156 166 153 255 
0.071059 -0.287237 0.925261 151 161 149 255 
0.0709 -0.289109 0.923586 153 163 156 255 
0.070818 -0.291287 0.921911 163 173 166 255 
0.070659 -0.29314 0.920235 167 179 173 255 
0.070577 -0.295304 0.918446 165 177 165 255 
0.070572 -0.297786 0.916658 163 175 167 255 
0.070336 -0.299288 0.914869 160 172 160 255 
0.070101 -0.300774 0.912917 160 172 160 255 
0.069789 -0.301911 0.910949 165 175 164 255 
0.069554 -0.303361 0.90897 164 174 165 255 
0.069395 -0.305133 0.907382 161 169 158 255 
0.069314 -0.307234 0.905793 158 166 161 255 
0.069309 -0.309673 0.904213 159 167 160 255 
0.069305 -0.312111 0.903404 154 162 155 255 
0.0693 -0.31455 0.902595 144 152 144 255 
0.069142 -0.316287 0.901746 127 136 126 255 
0.069215 -0.319074 0.901443 127 136 126 255 
0.069134 -0.321153 0.901101 129 138 127 255 
0.06913 -0.323587 0.900779 120 129 119 255 
0.068972 -0.325297 0.901543 121 130 120 255 
0.068968 -0.327726 0.902346 130 138 130 255 
0.069041 -0.330522 0.90319 135 142 131 255 
0.069421 -0.334803 0.90484 113 120 107 255 
0.069801 -0.339112 0.906462 103 108 95 255 
0.069874 -0.341946 0.907925 96 101 88 255 
0.069794 -0.34403 0.908547 89 96 84 255 
0.069714 -0.346109 0.909192 85 93 84 255 
0.069864 -0.349333 0.909859 89 97 88 255 
0.069938 -0.352183 0.909114 96 104 95 255 
0.069935 -0.354649 0.908369 109 117 110 255 
0.069778 -0.356332 0.907621 131 140 129 255 
0.069469 -0.357217 0.906677 153 162 146 255 
0.069313 -0.358874 0.905734 136 144 136 255 
0.069157 -0.360521 0.904786 120 126 118 255 
0.069232 -0.363365 0.904333 118 127 117 255 
0.069229 -0.36581 0.903875 122 131 121 255 
0.069304 -0.368663 0.903422 119 128 118 255 
0.069302 -0.371111 0.903484 122 129 118 255 
0.069224 -0.373147 0.903541 120 127 116 255 
0.069222 -0.375594 0.903603 117 126 116 255 
0.06922 -0.378042 0.903695 118 127 117 255 
0.069296 -0.380912 0.90379 121 128 117 255 
0.069218 -0.382939 0.90388 121 128 117 255 
0.069217 -0.385389 0.904106 120 126 118 255 
0.069216 -0.38784 0.904331 121 127 119 255 
0.069292 -0.390724 0.904558 119 126 115 255 
0.069368 -0.393614 0.904676 122 129 116 255 
0.069444 -0.396511 0.904794 120 127 114 255 
0.069444 -0.398973 0.90491 118 125 114 255 
0.069367 -0.400994 0.905017 119 128 118 255 
0.069214 -0.402564 0.905123 119 128 118 255 
0.069214 -0.405021 0.905231 117 126 116 255 
0.069215 -0.40748 0.905514 119 126 113 255 
0.069292 -0.410393 0.905798 119 124 112 255 
0.06937 -0.413313 0.906082 110 114 105 255 
0.069754 -0.418078 0.906106 11 15 7 255 
0.069173 0.249027 0.887829 112 150 199 255 
0.071015 0.250793 0.891243 187 195 191 255 
0.07118 0.248938 0.891826 187 195 191 255 
0.071107 0.246243 0.889713 186 195 192 255 
0.071033 0.243554 0.887598 184 192 184 255 
0.070959 0.24087 0.885478 183 191 185 255 
0.070806 0.237924 0.880712 180 189 178 255 
0.070015 0.232868 0.874673 193 201 195 255 
0.068747 0.226293 0.867024 190 198 188 255 
0.067557 0.220064 0.858378 187 195 191 255 
0.067085 0.216226 0.851365 184 192 184 255 
0.066692 0.212675 0.844659 176 184 172 255 
0.066459 0.209654 0.84087 165 175 164 255 
0.066305 0.206897 0.837329 162 172 167 255 
0.066151 0.20415 0.833926 162 172 167 255 
0.066237 0.202144 0.831591 170 180 169 255 
0.066163 0.199651 0.829247 177 185 181 255 
0.066168 0.197401 0.826908 182 190 186 255 
0.065855 0.19421 0.824211 183 191 185 255 
0.065462 0.190807 0.82149 186 196 183 255 
0.064989 0.187202 0.818735 187 197 191 255 
0.064596 0.183856 0.81547 183 193 186 255 
0.064441 0.181209 0.812162 172 180 176 255 
0.064367 0.178795 0.808847 166 175 163 255 
0.064213 0.176166 0.805381 175 184 173 255 
0.063899 0.173116 0.801753 180 189 178 255 
0.063585 0.170087 0.798074 181 189 177 255 
0.063351 0.16729 0.794875 182 194 187 255 
0.063037 0.164301 0.791728 180 192 179 255 
0.062803 0.161539 0.788736 168 182 172 255 
0.062489 0.15859 0.78662 166 178 174 255 
0.062334 0.156061 0.784594 162 174 168 255 
0.062339 0.153938 0.782606 161 171 158 255 
0.062424 0.152009 0.781156 165 175 164 255 
0.062349 0.14969 0.779707 178 186 180 255 
0.062115 0.146998 0.778258 179 187 179 255 
0.06196 0.144509 0.777133 163 172 166 255 
0.061805 0.14203 0.776009 163 173 166 255 
0.06165 0.139562 0.774884 166 176 163 255 
0.061415 0.136926 0.774393 159 169 160 255 
0.06142 0.134831 0.773903 132 142 131 255 
0.061584 0.133082 0.773412 116 125 115 255 
0.061668 0.131152 0.773749 103 112 100 255 
0.061753 0.129215 0.774086 103 110 98 255 
0.061757 0.127109 0.774423 102 109 97 255 
0.061762 0.125002 0.775222 101 108 98 255 
0.061846 0.123053 0.776021 100 105 94 255 
0.06193 0.121099 0.776819 96 101 90 255 
0.061855 0.118832 0.777837 102 107 96 255 
0.061939 0.116871 0.778855 106 110 101 255 
0.061943 0.114757 0.779873 103 109 101 255 
0.062107 0.112932 0.781334 105 111 103 255 
0.062271 0.111097 0.782843 100 107 97 255 
0.062355 0.10911 0.78436 100 107 97 255 
0.062359 0.106981 0.787201 102 107 96 255 
0.062523 0.105119 0.790208 92 97 86 255 
0.063007 0.103774 0.793733 89 96 84 255 
0.06389 0.10304 0.799187 94 99 88 255 
0.064614 0.101993 0.804351 94 99 88 255 
0.065257 0.100773 0.809343 92 97 86 255 
0.065421 0.098784 0.813293 98 103 92 255 
0.065505 0.096666 0.817101 98 103 90 255 
0.065509 0.094427 0.82084 96 101 88 255 
0.065672 0.092412 0.824177 93 98 83 255 
0.065996 0.090606 0.8275 97 102 87 255 
0.066399 0.088885 0.830768 92 97 82 255 
0.067043 0.087449 0.833571 80 85 73 255 
0.067286 0.085461 0.836378 81 84 71 255 
0.067449 0.083358 0.839186 83 86 73 255 
0.067533 0.081147 0.840948 85 88 75 255 
0.067696 0.079023 0.842724 86 89 76 255 
0.067699 0.076707 0.844491 90 93 82 255 
0.067702 0.074391 0.845379 88 93 80 255 
0.067705 0.072074 0.846268 88 93 80 255 
0.067788 0.06984 0.847178 88 93 82 255 
0.067871 0.0676 0.847558 85 90 79 255 
0.067953 0.065354 0.847939 91 96 85 255 
0.067956 0.063028 0.848299 87 92 81 255 
0.067878 0.06063 0.848213 89 94 83 255 
0.067721 0.058169 0.848107 95 97 90 255 
0.067803 0.055917 0.848069 98 100 93 255 
0.067805 0.053595 0.847356 96 100 94 255 
0.067968 0.051395 0.846679 93 97 91 255 
0.06789 0.049009 0.845946 95 101 93 255 
0.067811 0.04663 0.844695 106 112 104 255 
0.067493 0.044098 0.843412 114 120 114 255 
0.067255 0.041638 0.842159 120 128 120 255 
0.067016 0.039194 0.841032 123 131 123 255 
0.067018 0.036899 0.839935 125 133 125 255 
0.066939 0.034562 0.838837 124 132 124 255 
0.06686 0.03223 0.83831 127 135 127 255 
0.066862 0.02994 0.837784 124 132 124 255 
0.066863 0.027649 0.837257 126 134 126 255 
0.066944 0.025389 0.837086 126 134 126 255 
0.066865 0.023068 0.836914 124 132 124 255 
0.066866 0.020777 0.836742 128 136 129 255 
0.066947 0.018509 0.8368 127 135 127 255 
0.066948 0.016215 0.836859 126 134 126 255 
0.066948 0.013921 0.836917 127 135 127 255 
0.067029 0.011641 0.837222 122 130 122 255 
0.067109 0.009356 0.837527 124 132 124 255 
0.06711 0.007057 0.837832 121 129 121 255 
0.06703 0.004751 0.838384 122 130 122 255 
0.06703 0.002455 0.838935 120 128 120 255 
0.06719 0.000158 0.839488 117 125 118 255 
0.06727 -0.002146 0.840333 114 122 115 255 
0.06743 -0.004462 0.841185 112 118 110 255 
0.06735 -0.006764 0.842028 109 115 107 255 
0.06743 -0.009083 0.843172 109 115 107 255 
0.067429 -0.011393 0.844311 111 116 105 255 
0.067749 -0.013768 0.845508 111 115 106 255 
0.067909 -0.016128 0.846676 108 112 103 255 
0.068068 -0.018498 0.847854 108 114 106 255 
0.068067 -0.02083 0.848999 107 113 105 255 
0.068066 -0.023162 0.849835 107 113 105 255 
0.068145 -0.025524 0.850693 110 116 108 255 
0.068144 -0.027858 0.851529 110 116 110 255 
0.068223 -0.030228 0.852233 111 119 112 255 
0.068222 -0.032565 0.852915 115 121 115 255 
0.068301 -0.034943 0.853615 111 117 111 255 
0.068299 -0.037282 0.854533 112 118 112 255 
0.068377 -0.039668 0.855465 112 118 110 255 
0.068536 -0.042108 0.856406 109 115 107 255 
0.068774 -0.044611 0.857611 110 116 108 255 
0.068853 -0.047021 0.858787 108 114 106 255 
0.068931 -0.049436 0.859959 109 115 107 255 
0.068848 -0.051736 0.861239 110 116 108 255 
0.068846 -0.054093 0.862524 104 110 102 255 
0.069004 -0.056582 0.863809 107 113 105 255 
0.069162 -0.059081 0.865337 107 114 103 255 
0.06932 -0.061591 0.866864 104 111 101 255 
0.069317 -0.063964 0.868391 104 111 101 255 
0.069474 -0.066489 0.870384 104 111 101 255 
0.069712 -0.069105 0.872379 104 111 99 255 
0.069869 -0.071655 0.874375 104 111 99 255 
0.070026 -0.074215 0.876863 105 112 102 255 
0.070183 -0.076787 0.879377 103 108 97 255 
0.07042 -0.079459 0.881947 100 105 94 255 
0.070577 -0.082054 0.885538 103 108 97 255 
0.070734 -0.08466 0.889236 102 107 96 255 
0.07105 -0.087473 0.893251 103 108 97 255 
0.071607 -0.090612 0.899041 103 108 97 255 
0.072243 -0.093893 0.905069 104 109 98 255 
0.07288 -0.097217 0.911232 104 109 98 255 
0.073596 -0.100694 0.916195 108 110 101 255 
0.074232 -0.104107 0.920574 107 112 101 255 
0.074628 -0.107219 0.924271 107 112 101 255 
0.074703 -0.109888 0.92542 106 113 103 255 
0.074619 -0.112321 0.926528 106 113 103 255 
0.074375 -0.114501 0.927656 99 106 96 255 
0.074131 -0.116665 0.927332 97 103 95 255 
0.073966 -0.118941 0.927008 93 100 88 255 
0.073882 -0.121337 0.926684 93 100 88 255 
0.073877 -0.12386 0.926201 88 95 83 255 
0.073792 -0.126247 0.925717 87 94 82 255 
0.073868 -0.128907 0.925234 90 97 85 255 
0.073943 -0.131571 0.925206 94 101 91 255 
0.073858 -0.133951 0.925178 96 103 91 255 
0.073853 -0.136472 0.925149 99 108 96 255 
0.073768 -0.138843 0.925438 101 110 98 255 
0.074003 -0.14182 0.925727 102 111 99 255 
0.073918 -0.14419 0.926016 110 119 107 255 
0.073992 -0.146871 0.926607 106 115 103 255 
0.073987 -0.149396 0.927198 108 117 105 255 
0.074142 -0.152248 0.927789 105 114 102 255 
0.074216 -0.154944 0.92883 109 118 106 255 
0.074211 -0.157475 0.92987 101 110 98 255 
0.074125 -0.159834 0.930911 103 112 100 255 
0.074359 -0.162887 0.93229 107 114 103 255 
0.074593 -0.165955 0.933669 107 114 103 255 
0.074987 -0.1694 0.935049 102 109 99 255 
0.074981 -0.171956 0.936053 99 108 96 255 
0.074895 -0.174326 0.937057 100 109 97 255 
0.07481 -0.17669 0.938061 102 111 99 255 
0.074804 -0.179239 0.938694 103 111 104 255 
0.074878 -0.181981 0.939326 104 112 105 255 
0.074872 -0.184532 0.939958 107 116 104 255 
0.074866 -0.187083 0.940953 106 115 103 255 
0.075019 -0.190037 0.941956 103 110 100 255 
0.075013 -0.192592 0.942954 97 104 92 255 
0.075167 -0.195561 0.944742 99 106 94 255 
0.07524 -0.198331 0.946549 100 107 95 255 
0.075473 -0.201531 0.948472 96 105 94 255 
0.075547 -0.204316 0.950697 96 105 94 255 
0.07594 -0.20798 0.953096 95 105 89 255 
0.076173 -0.211228 0.955402 97 107 93 255 
0.076485 -0.214716 0.957412 96 105 94 255 
0.076559 -0.217545 0.959267 99 108 96 255 
0.076712 -0.220608 0.961099 98 107 96 255 
0.076785 -0.22345 0.962156 98 107 96 255 
0.076938 -0.226531 0.963211 97 106 95 255 
0.077091 -0.229623 0.964261 98 107 96 255 
0.077084 -0.232245 0.964676 96 106 92 255 
0.076998 -0.234623 0.965091 95 105 89 255 
0.076912 -0.236996 0.965506 92 101 90 255 
0.076746 -0.239114 0.965401 99 108 96 255 
0.076739 -0.241723 0.965295 107 118 105 255 
0.076813 -0.244586 0.965191 116 128 116 255 
0.076965 -0.24771 0.964681 126 139 126 255 
0.076959 -0.250326 0.964167 134 146 135 255 
0.076873 -0.252679 0.963641 141 151 140 255 
0.076866 -0.255292 0.962544 149 159 150 255 
0.07678 -0.257637 0.961416 152 162 157 255 
0.076694 -0.259976 0.960268 156 164 153 255 
0.076529 -0.262036 0.958551 158 167 161 255 
0.076283 -0.26381 0.95675 157 166 152 255 
0.075958 -0.26529 0.954844 153 163 156 255 
0.075634 -0.266747 0.952477 154 164 155 255 
0.075468 -0.268749 0.950243 157 167 152 255 
0.075144 -0.270168 0.947909 159 169 160 255 
0.075058 -0.272432 0.945402 163 176 167 255 
0.074813 -0.274107 0.942837 168 181 172 255 
0.074728 -0.276353 0.940381 169 181 171 255 
0.074562 -0.278298 0.937768 164 176 166 255 
0.074397 -0.280231 0.935186 162 172 157 255 
0.074073 -0.281548 0.932624 161 171 158 255 
0.073829 -0.283148 0.930488 158 168 161 255 
0.073584 -0.284732 0.928364 156 166 153 255 
0.073579 -0.287232 0.92625 156 166 153 255 
0.073334 -0.288791 0.924568 154 166 156 255 
0.073249 -0.290966 0.922887 164 176 166 255 
0.073164 -0.293135 0.921205 170 182 170 255 
0.073159 -0.29562 0.919384 166 178 164 255 
0.073074 -0.297781 0.917564 165 177 165 255 
0.07291 -0.29961 0.915743 162 174 168 255 
0.072587 -0.300769 0.913741 159 171 161 255 
0.072343 -0.302238 0.911731 158 170 162 255 
0.0721 -0.303691 0.909712 156 166 153 255 
0.072015 -0.305803 0.908118 156 164 153 255 
0.071931 -0.30791 0.906518 160 168 159 255 
0.072006 -0.310697 0.904937 155 163 154 255 
0.071921 -0.312798 0.904093 154 162 155 255 
0.071837 -0.314894 0.903248 146 155 144 255 
0.071674 -0.316633 0.902383 131 140 129 255 
0.071749 -0.319423 0.90206 126 135 125 255 
0.071665 -0.321506 0.901702 123 132 122 255 
0.07174 -0.324301 0.901381 122 132 121 255 
0.071498 -0.325655 0.902136 122 131 121 255 
0.071335 -0.327357 0.902884 131 139 131 255 
0.071411 -0.330151 0.903721 136 143 132 255 
0.071724 -0.334059 0.905345 111 118 105 255 
0.072356 -0.339481 0.907082 102 107 94 255 
0.072432 -0.342318 0.90856 95 100 87 255 
0.072349 -0.344405 0.909147 89 96 84 255 
0.072346 -0.346867 0.909765 85 93 84 255 
0.072422 -0.349714 0.910383 90 98 89 255 
0.072577 -0.352952 0.909607 96 104 95 255 
0.072495 -0.355035 0.90883 114 122 115 255 
0.072412 -0.357113 0.908052 134 143 132 255 
0.072013 -0.357608 0.907137 150 159 149 255 
0.071851 -0.359268 0.906225 132 140 132 255 
0.07161 -0.360519 0.905307 117 125 118 255 
0.071687 -0.363363 0.904898 120 129 119 255 
0.071606 -0.365402 0.904482 120 129 119 255 
0.071683 -0.368253 0.904073 121 130 120 255 
0.071681 -0.370699 0.904147 125 132 121 255 
0.071679 -0.373145 0.904221 121 128 117 255 
0.071757 -0.376008 0.904297 120 129 119 255 
0.071914 -0.379296 0.90439 120 127 116 255 
0.071913 -0.381753 0.904477 121 128 117 255 
0.071832 -0.383786 0.904562 122 127 115 255 
0.071672 -0.385388 0.904778 119 125 117 255 
0.071672 -0.387839 0.904995 121 127 119 255 
0.07175 -0.390723 0.905214 121 128 117 255 
0.071829 -0.393614 0.90532 119 126 115 255 
0.072067 -0.397386 0.905428 121 128 115 255 
0.071987 -0.399413 0.905533 120 127 116 255 
0.071987 -0.40188 0.905682 118 127 117 255 
0.071829 -0.403456 0.905829 118 127 117 255 
0.071749 -0.40547 0.905977 118 127 117 255 
0.071671 -0.40748 0.906262 120 127 114 255 
0.071671 -0.40994 0.906546 118 123 111 255 
0.07191 -0.413771 0.906831 106 110 101 255 
0.072308 -0.418539 0.906798 12 16 8 255 
0.066684 0.232114 0.857187 102 144 197 255 
0.073447 0.250787 0.892576 156 168 194 255 
0.073782 0.249489 0.893361 189 198 199 255 
0.073871 0.24734 0.8911 192 200 196 255 
0.073712 0.244367 0.888608 185 193 183 255 
0.073636 0.241675 0.886193 181 189 177 255 
0.07323 0.237917 0.88091 180 188 178 255 
0.07233 0.232597 0.87443 192 200 196 255 
0.070936 0.225763 0.866439 192 200 196 255 
0.069953 0.220317 0.858302 190 198 188 255 
0.069547 0.216734 0.851431 187 195 191 255 
0.069058 0.212924 0.844609 179 187 179 255 
0.068652 0.209397 0.840576 166 176 163 255 
0.068493 0.206643 0.837008 159 169 160 255 
0.068334 0.203899 0.833573 156 166 153 255 
0.068422 0.201895 0.831233 165 175 164 255 
0.068428 0.199645 0.828881 172 180 176 255 
0.068433 0.197395 0.826529 180 188 178 255 
0.068192 0.194439 0.82382 182 190 186 255 
0.06795 0.191499 0.821089 186 194 182 255 
0.067296 0.187426 0.818276 185 193 183 255 
0.066972 0.184304 0.814858 184 194 185 255 
0.06673 0.181428 0.811349 180 188 178 255 
0.06657 0.178789 0.807799 180 189 178 255 
0.066329 0.175942 0.804177 180 189 178 255 
0.066087 0.173111 0.800543 180 189 178 255 
0.065762 0.170082 0.796825 179 189 180 255 
0.06552 0.167285 0.793774 179 189 180 255 
0.065195 0.164296 0.790787 180 192 179 255 
0.064953 0.161534 0.787954 177 189 182 255 
0.064628 0.158584 0.785986 174 186 176 255 
0.064468 0.156056 0.784084 165 177 165 255 
0.064473 0.153933 0.782208 160 170 159 255 
0.064396 0.151615 0.780819 161 170 168 255 
0.064483 0.149685 0.779431 174 182 174 255 
0.064241 0.146993 0.778042 179 187 179 255 
0.064163 0.14469 0.77691 171 181 168 255 
0.064003 0.142209 0.775778 165 175 164 255 
0.06376 0.139557 0.774645 165 175 164 255 
0.063434 0.136743 0.774065 162 172 157 255 
0.063439 0.134651 0.773485 150 160 150 255 
0.063609 0.132905 0.772904 122 131 121 255 
0.063697 0.130977 0.773153 107 116 104 255 
0.063701 0.128876 0.773402 104 113 101 255 
0.063706 0.126775 0.773651 98 107 96 255 
0.063793 0.124835 0.774437 97 104 94 255 
0.06388 0.12289 0.775222 96 103 93 255 
0.064133 0.121251 0.776008 94 101 91 255 
0.063972 0.118827 0.777185 93 100 90 255 
0.064059 0.116867 0.778364 98 105 95 255 
0.064063 0.114752 0.779542 102 108 100 255 
0.064316 0.113073 0.781383 104 110 102 255 
0.064402 0.111093 0.783247 99 106 96 255 
0.064489 0.109106 0.785144 100 107 97 255 
0.064576 0.107114 0.788448 100 107 97 255 
0.065076 0.105788 0.79225 90 97 87 255 
0.065742 0.104692 0.796508 99 104 93 255 
0.066408 0.103552 0.80167 97 102 91 255 
0.066908 0.102115 0.806474 89 94 83 255 
0.067408 0.100645 0.81114 96 101 90 255 
0.06766 0.09878 0.815063 100 105 94 255 
0.067747 0.096662 0.818788 97 100 88 255 
0.067833 0.094538 0.82247 96 99 87 255 
0.068085 0.092634 0.82569 98 101 87 255 
0.068585 0.091042 0.828892 94 99 84 255 
0.069002 0.08931 0.832053 83 88 74 255 
0.06942 0.08755 0.834679 77 82 70 255 
0.069589 0.085458 0.837309 76 79 66 255 
0.069758 0.083355 0.839944 79 82 69 255 
0.069844 0.081144 0.841709 82 85 72 255 
0.070013 0.07902 0.843498 84 87 74 255 
0.070098 0.076795 0.845288 88 91 80 255 
0.070102 0.074476 0.846359 92 95 83 255 
0.070105 0.072157 0.84743 91 94 82 255 
0.070273 0.070002 0.848559 91 96 83 255 
0.070442 0.067836 0.849039 88 93 82 255 
0.070527 0.065582 0.84949 91 96 85 255 
0.07053 0.063248 0.849913 89 94 83 255 
0.070367 0.060771 0.849774 91 96 85 255 
0.070286 0.058373 0.849666 95 97 90 255 
0.070289 0.056046 0.849587 97 99 92 255 
0.070374 0.053783 0.848868 97 98 92 255 
0.070459 0.051514 0.848148 93 97 91 255 
0.070378 0.049123 0.847376 98 102 96 255 
0.070298 0.046738 0.846044 93 99 91 255 
0.070051 0.044253 0.84468 99 105 97 255 
0.069722 0.041735 0.84332 110 116 110 255 
0.069475 0.039286 0.842093 117 123 117 255 
0.069311 0.036897 0.840901 122 128 122 255 
0.069313 0.034602 0.83973 123 131 123 255 
0.069314 0.032306 0.839161 123 131 123 255 
0.069315 0.03001 0.838591 122 130 122 255 
0.069317 0.027715 0.838021 123 131 123 255 
0.069318 0.025419 0.837834 125 133 125 255 
0.069319 0.023122 0.837647 126 134 126 255 
0.069403 0.020851 0.837461 129 137 129 255 
0.069321 0.01853 0.837521 128 136 128 255 
0.069321 0.016234 0.837581 126 134 126 255 
0.069239 0.013921 0.837641 127 135 127 255 
0.069405 0.011655 0.837982 123 132 122 255 
0.069406 0.009356 0.838323 121 130 120 255 
0.069489 0.007065 0.838663 122 131 121 255 
0.069489 0.004763 0.839272 119 128 118 255 
0.069489 0.00246 0.83988 117 125 118 255 
0.069572 0.000159 0.84049 116 124 117 255 
0.069655 -0.002149 0.841386 114 120 112 255 
0.069821 -0.004467 0.842295 109 115 107 255 
0.06982 -0.00678 0.843196 110 116 108 255 
0.069903 -0.009104 0.844377 108 114 106 255 
0.069902 -0.01142 0.845548 110 116 108 255 
0.070067 -0.013768 0.846765 112 116 107 255 
0.070232 -0.016127 0.847943 112 116 107 255 
0.070397 -0.018497 0.849128 113 117 108 255 
0.070397 -0.020829 0.850263 109 115 107 255 
0.070396 -0.023161 0.851069 108 114 106 255 
0.07056 -0.025552 0.851923 110 116 108 255 
0.070642 -0.027922 0.852747 111 119 112 255 
0.070723 -0.030298 0.853438 112 120 113 255 
0.070639 -0.032602 0.85409 115 121 115 255 
0.070638 -0.034941 0.854762 111 117 111 255 
0.070636 -0.03728 0.855702 116 122 116 255 
0.070717 -0.039666 0.856652 113 119 111 255 
0.070964 -0.042155 0.857614 111 117 109 255 
0.071211 -0.044661 0.858839 112 118 110 255 
0.071374 -0.047128 0.860051 109 115 107 255 
0.071372 -0.049491 0.861251 111 117 109 255 
0.07137 -0.051854 0.862568 110 116 108 255 
0.071451 -0.05428 0.863886 107 113 105 255 
0.071531 -0.056711 0.865201 107 113 105 255 
0.071611 -0.059147 0.866771 107 113 105 255 
0.071692 -0.061588 0.868341 105 111 103 255 
0.071855 -0.064109 0.869911 108 115 104 255 
0.0721 -0.066716 0.871968 105 112 102 255 
0.072263 -0.069261 0.874028 103 110 98 255 
0.072426 -0.071816 0.87609 103 110 98 255 
0.072588 -0.074382 0.878714 103 110 100 255 
0.072833 -0.077046 0.881414 106 111 100 255 
0.073078 -0.079726 0.884184 104 109 98 255 
0.073323 -0.082423 0.888225 103 108 97 255 
0.073568 -0.085135 0.892431 102 107 96 255 
0.073978 -0.088061 0.897045 105 110 99 255 
0.074388 -0.091013 0.90273 104 109 98 255 
0.074964 -0.094201 0.908639 103 108 97 255 
0.075787 -0.097746 0.914881 105 110 99 255 
0.076611 -0.101346 0.919044 103 108 97 255 
0.077186 -0.104664 0.922412 108 113 102 255 
0.077347 -0.107445 0.925202 108 113 102 255 
0.07726 -0.109884 0.92577 106 113 103 255 
0.076925 -0.111955 0.926331 100 107 97 255 
0.076589 -0.114005 0.926946 95 101 93 255 
0.076419 -0.116283 0.926507 96 102 94 255 
0.076332 -0.118679 0.926069 92 99 89 255 
0.076162 -0.120938 0.925631 93 100 90 255 
0.07624 -0.123588 0.92534 92 99 89 255 
0.076401 -0.126379 0.925048 91 100 89 255 
0.076561 -0.129181 0.924756 93 100 88 255 
0.076556 -0.131709 0.924871 95 102 90 255 
0.076386 -0.133946 0.924986 99 106 94 255 
0.076381 -0.136467 0.925101 98 107 96 255 
0.076375 -0.138988 0.925521 99 108 96 255 
0.076618 -0.141968 0.925941 101 110 98 255 
0.07653 -0.144341 0.926361 110 119 107 255 
0.076525 -0.146866 0.927081 108 117 105 255 
0.076437 -0.149229 0.9278 108 117 105 255 
0.076597 -0.152078 0.928519 109 118 106 255 
0.076674 -0.154772 0.929602 106 115 103 255 
0.076751 -0.15747 0.930685 104 113 101 255 
0.076828 -0.160173 0.931768 104 113 101 255 
0.076987 -0.163056 0.933026 108 115 104 255 
0.077229 -0.166127 0.934284 106 113 103 255 
0.077388 -0.169033 0.935542 105 113 106 255 
0.077382 -0.171584 0.936445 102 110 103 255 
0.077376 -0.174134 0.937349 103 111 104 255 
0.077288 -0.176495 0.938252 106 114 107 255 
0.077364 -0.179233 0.938927 108 116 109 255 
0.077523 -0.182169 0.939601 106 114 107 255 
0.077517 -0.184723 0.940275 109 117 110 255 
0.077511 -0.187276 0.941305 108 117 105 255 
0.07767 -0.190233 0.942341 101 110 98 255 
0.077746 -0.192995 0.94338 102 109 99 255 
0.077905 -0.19597 0.945112 102 109 99 255 
0.077898 -0.198535 0.946833 100 107 97 255 
0.078057 -0.201525 0.94864 97 106 95 255 
0.078216 -0.204526 0.950851 99 108 96 255 
0.078539 -0.207974 0.953149 97 104 92 255 
0.07878 -0.211222 0.955406 95 105 89 255 
0.079103 -0.214709 0.9575 95 104 93 255 
0.079179 -0.217538 0.959438 99 108 96 255 
0.079338 -0.220602 0.961355 99 108 96 255 
0.079414 -0.223443 0.962568 97 106 95 255 
0.079572 -0.226525 0.963779 96 105 94 255 
0.07973 -0.229616 0.964984 96 106 92 255 
0.079723 -0.232238 0.965507 92 103 88 255 
0.079634 -0.234617 0.96603 95 106 91 255 
0.079627 -0.237235 0.966554 94 104 88 255 
0.079538 -0.239604 0.966506 99 108 96 255 
0.079614 -0.24247 0.966459 109 120 107 255 
0.079607 -0.245087 0.966412 118 131 118 255 
0.079683 -0.247959 0.965988 126 139 126 255 
0.079594 -0.250319 0.965559 135 147 136 255 
0.079505 -0.252673 0.965126 137 147 136 255 
0.079416 -0.255021 0.964144 144 154 143 255 
0.079491 -0.257897 0.96319 151 161 149 255 
0.079567 -0.260779 0.96225 154 163 155 255 
0.079561 -0.263393 0.960703 153 162 146 255 
0.079307 -0.265181 0.959013 154 163 155 255 
0.079053 -0.266952 0.957265 157 167 152 255 
0.078635 -0.268145 0.954767 157 167 152 255 
0.078299 -0.269594 0.952305 159 169 160 255 
0.077881 -0.270734 0.949755 160 170 159 255 
0.077793 -0.273003 0.947094 165 177 165 255 
0.077539 -0.274684 0.944345 167 180 163 255 
0.077451 -0.276936 0.941727 166 178 164 255 
0.077116 -0.278291 0.93893 164 176 166 255 
0.077027 -0.280524 0.936286 164 174 165 255 
0.076692 -0.281844 0.933629 162 172 167 255 
0.076439 -0.283448 0.931476 158 168 161 255 
0.076269 -0.285342 0.92935 160 170 159 255 
0.076263 -0.287847 0.927239 157 167 162 255 
0.075928 -0.289098 0.925551 157 169 163 255 
0.075758 -0.29096 0.923863 167 179 173 255 
0.07567 -0.293129 0.922175 168 180 172 255 
0.075747 -0.295936 0.920322 168 180 172 255 
0.075741 -0.298424 0.91847 164 176 166 255 
0.075324 -0.299278 0.916617 162 174 168 255 
0.07499 -0.300434 0.914564 160 172 160 255 
0.074738 -0.301901 0.912507 161 173 159 255 
0.074569 -0.303686 0.910448 158 168 161 255 
0.074564 -0.306136 0.908839 159 168 160 255 
0.074394 -0.307905 0.907216 155 163 154 255 
0.074472 -0.310692 0.905611 153 161 156 255 
0.074302 -0.312447 0.904738 151 159 148 255 
0.074298 -0.314889 0.903882 145 154 143 255 
0.074211 -0.31698 0.903013 133 142 131 255 
0.074289 -0.319772 0.902671 127 136 126 255 
0.074284 -0.322214 0.902317 124 133 123 255 
0.074198 -0.324297 0.901944 118 128 117 255 
0.073865 -0.325289 0.902678 124 133 123 255 
0.073614 -0.326624 0.903395 131 139 131 255 
0.073692 -0.329412 0.904221 129 136 125 255 
0.074181 -0.334056 0.905927 104 111 99 255 
0.074999 -0.340222 0.90773 103 111 96 255 
0.074995 -0.34269 0.909192 93 100 88 255 
0.074909 -0.344779 0.909744 90 97 87 255 
0.074824 -0.346864 0.910316 87 95 86 255 
0.074902 -0.34971 0.910907 87 95 88 255 
0.074899 -0.352176 0.910098 98 106 97 255 
0.074896 -0.354643 0.909288 116 124 117 255 
0.074729 -0.356327 0.908476 138 147 136 255 
0.074479 -0.357606 0.907595 152 161 147 255 
0.074395 -0.359663 0.906716 131 140 129 255 
0.07431 -0.361715 0.905836 120 129 119 255 
0.074225 -0.363763 0.905466 119 128 118 255 
0.074223 -0.36621 0.905099 120 129 119 255 
0.074139 -0.368251 0.90473 120 129 117 255 
0.074137 -0.370697 0.904815 121 130 120 255 
0.074135 -0.373143 0.904901 117 126 116 255 
0.074215 -0.376007 0.904988 122 129 118 255 
0.074378 -0.379295 0.905074 122 129 118 255 
0.074295 -0.38133 0.905157 120 127 116 255 
0.074293 -0.383785 0.905241 120 127 116 255 
0.07421 -0.385814 0.90545 121 128 117 255 
0.074209 -0.388268 0.90566 119 125 117 255 
0.074209 -0.390723 0.90587 121 128 117 255 
0.07429 -0.393613 0.905965 122 129 118 255 
0.074618 -0.397823 0.906061 119 128 118 255 
0.074536 -0.399854 0.906156 120 129 119 255 
0.074454 -0.40188 0.906345 116 125 115 255 
0.07429 -0.403456 0.906534 118 127 117 255 
0.074208 -0.40547 0.906723 117 126 116 255 
0.074126 -0.407481 0.907009 120 127 114 255 
0.074209 -0.410395 0.907295 115 120 109 255 
0.074457 -0.414229 0.907581 92 99 89 255 
0.074868 -0.418999 0.907488 12 16 8 255 
0.075708 0.250219 0.893665 157 167 202 255 
0.076735 0.251153 0.895367 187 196 201 255 
0.076912 0.249264 0.892929 186 194 192 255 
0.076663 0.245999 0.890011 185 193 183 255 
0.076158 0.241939 0.886818 184 192 184 255 
0.075314 0.236841 0.880622 182 190 186 255 
0.074384 0.231531 0.873759 191 199 197 255 
0.073369 0.226019 0.866331 190 198 188 255 
0.072609 0.221349 0.858649 191 199 197 255 
0.072019 0.217242 0.851497 190 198 188 255 
0.071429 0.213172 0.844559 187 195 191 255 
0.070839 0.20914 0.840279 173 183 176 255 
0.07059 0.20614 0.836635 163 173 166 255 
0.07051 0.203647 0.833213 154 163 155 255 
0.070516 0.201403 0.830859 159 169 160 255 
0.070437 0.198918 0.828499 167 175 171 255 
0.070528 0.196914 0.82615 176 184 172 255 
0.070364 0.194198 0.823423 179 187 179 255 
0.070199 0.191493 0.820674 186 194 192 255 
0.069609 0.18765 0.817825 185 193 183 255 
0.069359 0.184753 0.814268 186 194 182 255 
0.068938 0.181422 0.810495 185 193 183 255 
0.068689 0.178562 0.806681 181 189 177 255 
0.068353 0.175499 0.802898 180 188 178 255 
0.068103 0.172673 0.799198 180 188 178 255 
0.067853 0.169863 0.795511 172 182 177 255 
0.067603 0.167069 0.792625 174 184 175 255 
0.067438 0.164498 0.789875 176 188 183 255 
0.067102 0.161528 0.787172 181 193 188 255 
0.066852 0.158782 0.785361 179 189 180 255 
0.066687 0.156251 0.783578 171 181 168 255 
0.066521 0.153731 0.781811 164 173 165 255 
0.066356 0.151221 0.780483 164 173 165 255 
0.066361 0.149105 0.779155 169 178 170 255 
0.066281 0.146799 0.777827 180 189 178 255 
0.066372 0.144871 0.776687 176 186 173 255 
0.066206 0.142387 0.775547 171 181 168 255 
0.066041 0.139913 0.774407 165 175 164 255 
0.065704 0.137094 0.773736 161 171 158 255 
0.065709 0.134997 0.773066 155 165 154 255 
0.065799 0.133073 0.772396 124 133 123 255 
0.065719 0.130802 0.772557 110 119 107 255 
0.065724 0.128705 0.772718 96 105 94 255 
0.065729 0.126606 0.772879 94 103 92 255 
0.065904 0.124831 0.773652 95 100 89 255 
0.066079 0.123044 0.774424 95 100 89 255 
0.06634 0.121402 0.775196 96 103 93 255 
0.066259 0.11913 0.776536 91 98 88 255 
0.066264 0.117013 0.777875 94 101 91 255 
0.066183 0.114748 0.77921 97 103 95 255 
0.066529 0.113215 0.781445 98 104 96 255 
0.066704 0.111374 0.783749 101 108 98 255 
0.066794 0.109382 0.786065 102 109 97 255 
0.067225 0.107932 0.790143 100 107 97 255 
0.067913 0.106859 0.794679 100 105 94 255 
0.068601 0.105741 0.799468 99 101 92 255 
0.068861 0.103934 0.804039 88 90 79 255 
0.069122 0.102111 0.808499 88 93 82 255 
0.069467 0.100394 0.812909 97 102 91 255 
0.069899 0.098776 0.816833 97 102 91 255 
0.070074 0.096776 0.820498 98 101 89 255 
0.070249 0.094765 0.824089 96 99 87 255 
0.07068 0.09308 0.827187 95 98 86 255 
0.071196 0.091478 0.830268 91 96 81 255 
0.071542 0.089628 0.833338 75 80 66 255 
0.071802 0.087651 0.835788 69 74 60 255 
0.071891 0.085455 0.838241 73 78 64 255 
0.072066 0.083351 0.840702 84 87 74 255 
0.072155 0.08114 0.842471 79 84 70 255 
0.072329 0.079017 0.844272 81 84 71 255 
0.072418 0.076792 0.846075 87 90 77 255 
0.072506 0.074561 0.847353 88 93 78 255 
0.07251 0.072239 0.848607 94 99 86 255 
0.072684 0.070082 0.849933 88 93 80 255 
0.072772 0.067833 0.850453 89 94 83 255 
0.072946 0.065656 0.851007 92 97 86 255 
0.072949 0.06332 0.85149 92 97 86 255 
0.07278 0.06084 0.851323 90 95 84 255 
0.072612 0.05837 0.851158 96 97 91 255 
0.072614 0.056044 0.851062 99 100 93 255 
0.072702 0.05378 0.850321 93 94 88 255 
0.072876 0.051572 0.849614 95 96 90 255 
0.072707 0.049121 0.848772 98 102 96 255 
0.072538 0.046681 0.847333 93 97 91 255 
0.072369 0.044251 0.845911 94 100 92 255 
0.0722 0.041833 0.844504 97 103 95 255 
0.071945 0.039378 0.84317 103 107 100 255 
0.071775 0.036984 0.841884 110 116 110 255 
0.071691 0.034641 0.840625 117 123 117 255 
0.071778 0.032382 0.840013 119 127 119 255 
0.071694 0.030045 0.839398 119 127 119 255 
0.071781 0.02778 0.838785 119 127 119 255 
0.071697 0.025448 0.838583 121 129 121 255 
0.071698 0.023149 0.838381 126 132 124 255 
0.071699 0.02085 0.838179 126 132 124 255 
0.0717 0.018551 0.838242 123 131 123 255 
0.071615 0.016233 0.838304 122 130 122 255 
0.071615 0.013937 0.838366 122 130 122 255 
0.071702 0.011654 0.838742 123 132 122 255 
0.071788 0.009366 0.839118 122 131 121 255 
0.071788 0.007064 0.839495 123 132 122 255 
0.071788 0.004762 0.84016 120 129 119 255 
0.071788 0.00246 0.840824 117 125 118 255 
0.07196 0.000159 0.841493 115 123 116 255 
0.07196 -0.002149 0.842437 113 119 111 255 
0.072045 -0.004462 0.843391 112 118 110 255 
0.072045 -0.006772 0.84434 111 117 109 255 
0.072215 -0.009103 0.845566 107 113 105 255 
0.072301 -0.011433 0.846788 110 116 108 255 
0.072471 -0.013783 0.848053 110 116 108 255 
0.072642 -0.016145 0.849242 114 118 109 255 
0.072812 -0.018518 0.850434 114 118 109 255 
0.072811 -0.020853 0.851562 111 115 106 255 
0.072896 -0.023214 0.852363 111 115 106 255 
0.072895 -0.025551 0.85313 110 116 108 255 
0.072979 -0.027921 0.85392 113 119 111 255 
0.073149 -0.030332 0.854619 116 122 116 255 
0.073147 -0.032677 0.855274 115 121 115 255 
0.073146 -0.035022 0.85593 115 121 115 255 
0.073144 -0.037366 0.856887 118 122 115 255 
0.073228 -0.039757 0.857851 115 119 110 255 
0.073483 -0.042252 0.858817 111 117 109 255 
0.073738 -0.044763 0.860064 109 115 107 255 
0.073736 -0.047126 0.861301 110 116 108 255 
0.073819 -0.049547 0.86254 109 115 107 255 
0.073731 -0.051852 0.86389 108 114 106 255 
0.074071 -0.054466 0.865244 106 114 107 255 
0.07424 -0.056971 0.866593 109 115 107 255 
0.074237 -0.059349 0.868206 105 111 103 255 
0.074235 -0.061728 0.869818 104 110 102 255 
0.074403 -0.064254 0.871431 109 114 103 255 
0.074571 -0.06679 0.873552 107 112 101 255 
0.074825 -0.069417 0.875679 107 112 101 255 
0.074907 -0.071895 0.877805 106 113 103 255 
0.075161 -0.074549 0.880592 104 111 101 255 
0.075414 -0.077218 0.883476 102 109 99 255 
0.075753 -0.079994 0.886509 102 109 99 255 
0.076006 -0.082698 0.890953 103 108 97 255 
0.076344 -0.085515 0.895676 106 111 100 255 
0.076768 -0.088451 0.900764 105 110 99 255 
0.077277 -0.091516 0.906603 104 109 98 255 
0.077872 -0.094717 0.912425 107 112 101 255 
0.078808 -0.098383 0.918513 103 110 98 255 
0.079573 -0.101889 0.921599 105 112 102 255 
0.079996 -0.104996 0.923997 107 114 103 255 
0.079821 -0.107326 0.926063 109 116 105 255 
0.07956 -0.109526 0.926102 104 111 101 255 
0.079214 -0.11159 0.926157 98 104 96 255 
0.079038 -0.113877 0.926235 93 101 92 255 
0.078948 -0.116279 0.925683 93 99 91 255 
0.078943 -0.118803 0.92513 95 102 92 255 
0.078768 -0.121065 0.924578 95 102 92 255 
0.078763 -0.123583 0.924479 96 103 93 255 
0.078843 -0.126237 0.924379 95 104 93 255 
0.079009 -0.129036 0.924279 94 103 92 255 
0.079089 -0.131703 0.924537 99 108 96 255 
0.078999 -0.134086 0.924795 102 109 97 255 
0.079079 -0.136758 0.925053 102 111 99 255 
0.079073 -0.139284 0.925605 101 110 98 255 
0.079153 -0.141963 0.926156 101 110 98 255 
0.079233 -0.144647 0.926707 105 114 102 255 
0.079228 -0.147178 0.927554 107 116 104 255 
0.079222 -0.149707 0.928401 105 114 102 255 
0.079302 -0.152401 0.929248 108 117 105 255 
0.079296 -0.154933 0.930374 106 115 103 255 
0.079376 -0.157633 0.931499 104 113 101 255 
0.079455 -0.160339 0.932625 107 116 104 255 
0.07962 -0.163225 0.933761 105 114 102 255 
0.079785 -0.166121 0.934898 105 113 106 255 
0.079864 -0.168847 0.936035 108 116 109 255 
0.079772 -0.171212 0.936837 108 116 109 255 
0.079852 -0.173942 0.93764 110 118 111 255 
0.079931 -0.176677 0.938443 110 119 107 255 
0.08001 -0.179418 0.93916 109 117 110 255 
0.080089 -0.182163 0.939876 111 119 112 255 
0.080082 -0.184717 0.940592 111 119 112 255 
0.080161 -0.187469 0.941656 109 117 110 255 
0.080325 -0.190429 0.942725 105 114 102 255 
0.08049 -0.193399 0.943801 103 112 100 255 
0.080654 -0.196379 0.945476 101 110 98 255 
0.080647 -0.198949 0.947142 98 107 96 255 
0.080726 -0.201732 0.948848 99 108 96 255 
0.080804 -0.204519 0.950961 97 106 95 255 
0.081053 -0.207749 0.953161 98 107 96 255 
0.081302 -0.210994 0.955367 96 105 94 255 
0.081636 -0.214479 0.957557 96 105 94 255 
0.0818 -0.217532 0.959609 98 107 96 255 
0.081964 -0.220595 0.961611 99 108 96 255 
0.081957 -0.223204 0.962976 99 108 96 255 
0.082291 -0.226753 0.964349 96 105 94 255 
0.082369 -0.22961 0.965707 99 110 95 255 
0.082532 -0.232712 0.966338 94 105 90 255 
0.08244 -0.235096 0.966969 94 105 90 255 
0.082433 -0.237719 0.967601 95 105 89 255 
0.082426 -0.240342 0.96761 99 109 95 255 
0.082419 -0.242965 0.967619 106 117 104 255 
0.082413 -0.245587 0.967629 119 132 119 255 
0.08232 -0.247953 0.96729 125 138 125 255 
0.082314 -0.250571 0.966951 134 146 135 255 
0.082136 -0.252666 0.966612 138 151 138 255 
0.082215 -0.255543 0.965778 143 153 142 255 
0.082293 -0.258425 0.964955 150 160 150 255 
0.082371 -0.261312 0.964144 149 158 147 255 
0.082279 -0.263659 0.962647 152 161 147 255 
0.082102 -0.265725 0.961084 152 161 147 255 
0.08184 -0.267501 0.959421 154 164 155 255 
0.081663 -0.269542 0.957063 158 168 161 255 
0.081402 -0.271288 0.954607 158 168 161 255 
0.081055 -0.272731 0.952027 156 166 153 255 
0.080708 -0.274153 0.948974 161 171 158 255 
0.080361 -0.275552 0.94597 166 178 164 255 
0.0801 -0.277224 0.943073 167 179 173 255 
0.079754 -0.278582 0.940138 166 178 164 255 
0.079577 -0.280518 0.937373 166 176 163 255 
0.079316 -0.282141 0.934645 160 172 160 255 
0.079055 -0.283747 0.932472 158 170 162 255 
0.078964 -0.285952 0.930344 155 167 155 255 
0.078788 -0.287841 0.928227 159 171 161 255 
0.078697 -0.290032 0.926533 163 175 167 255 
0.078521 -0.291902 0.924839 167 179 173 255 
0.0786 -0.294717 0.923145 172 184 178 255 
0.078594 -0.297215 0.92126 172 184 178 255 
0.078419 -0.299066 0.919375 165 177 165 255 
0.077903 -0.299599 0.917491 165 175 164 255 
0.077643 -0.301087 0.915389 163 173 166 255 
0.077468 -0.302892 0.913287 161 171 158 255 
0.077378 -0.30502 0.911185 160 170 159 255 
0.077287 -0.307143 0.909557 158 167 161 255 
0.076943 -0.30824 0.907918 156 165 153 255 
0.076938 -0.310687 0.906284 152 160 157 255 
0.076848 -0.312788 0.905402 151 159 148 255 
0.076758 -0.314884 0.904516 145 154 143 255 
0.076583 -0.316624 0.903617 135 144 133 255 
0.076664 -0.319414 0.903253 125 134 124 255 
0.076744 -0.32221 0.902895 119 129 118 255 
0.076739 -0.324652 0.902524 120 130 119 255 
0.07648 -0.326008 0.903292 125 134 124 255 
0.076137 -0.326985 0.903999 126 134 126 255 
0.076217 -0.329776 0.904832 130 135 123 255 
0.076723 -0.334422 0.906541 105 112 100 255 
0.077567 -0.340591 0.90834 101 109 94 255 
0.077394 -0.342311 0.909766 93 101 86 255 
0.07739 -0.344776 0.910321 87 94 82 255 
0.077302 -0.34686 0.910867 85 93 84 255 
0.077383 -0.349707 0.911431 87 95 86 255 
0.077295 -0.351787 0.910589 99 107 98 255 
0.077292 -0.354251 0.909747 117 126 116 255 
0.077034 -0.355541 0.908901 138 147 136 255 
0.076861 -0.357208 0.908051 147 156 145 255 
0.076774 -0.359263 0.907201 127 136 126 255 
0.076856 -0.362112 0.906355 122 131 121 255 
0.076769 -0.364163 0.906031 119 128 118 255 
0.076766 -0.366613 0.90571 119 128 118 255 
0.076679 -0.368656 0.905387 121 130 118 255 
0.076592 -0.370695 0.905484 119 128 118 255 
0.076591 -0.373142 0.905581 118 127 117 255 
0.076758 -0.376421 0.905679 121 128 117 255 
0.076927 -0.379712 0.905759 122 129 118 255 
0.076925 -0.382172 0.905839 120 127 116 255 
0.076924 -0.384632 0.905919 119 126 115 255 
0.076753 -0.38624 0.906121 119 128 118 255 
0.076583 -0.387838 0.906324 121 130 120 255 
0.076752 -0.391154 0.906526 117 126 116 255 
0.076921 -0.394483 0.90661 118 125 114 255 
0.077175 -0.39826 0.906694 121 130 120 255 
0.07709 -0.400294 0.906777 119 128 118 255 
0.07692 -0.40188 0.907008 119 128 118 255 
0.076751 -0.403456 0.907238 116 125 115 255 
0.076751 -0.40592 0.907469 119 128 118 255 
0.076752 -0.408384 0.907756 118 125 112 255 
0.076838 -0.411304 0.908043 112 117 106 255 
0.077093 -0.415143 0.90833 65 72 61 255 
0.078134 0.250213 0.895315 128 149 191 255 
0.079808 0.253096 0.897255 186 195 202 255 
0.080078 0.251464 0.894615 184 193 184 255 
0.079734 0.247904 0.891246 182 190 186 255 
0.078598 0.241933 0.886943 183 191 185 255 
0.077375 0.235764 0.880214 178 186 180 255 
0.076591 0.230995 0.873714 188 196 190 255 
0.075895 0.226537 0.867134 189 197 189 255 
0.075286 0.222381 0.85999 186 194 182 255 
0.074678 0.218263 0.852981 183 191 185 255 
0.074157 0.214436 0.846224 180 188 178 255 
0.073548 0.21039 0.84153 181 191 178 255 
0.073027 0.206631 0.837309 171 181 168 255 
0.072857 0.203887 0.833552 159 168 160 255 
0.072775 0.201397 0.831074 160 170 159 255 
0.072781 0.199152 0.828623 162 170 166 255 
0.072787 0.196908 0.826173 166 174 162 255 
0.072706 0.194427 0.82354 176 184 172 255 
0.072536 0.19172 0.820887 183 191 185 255 
0.071838 0.187644 0.818093 185 193 183 255 
0.071669 0.184974 0.814509 186 194 182 255 
0.071235 0.181641 0.810669 189 197 189 255 
0.070889 0.178556 0.806708 182 190 186 255 
0.070367 0.175055 0.802568 178 188 181 255 
0.070021 0.172019 0.798618 179 189 180 255 
0.069939 0.169644 0.7949 169 179 170 255 
0.06968 0.166853 0.792042 167 177 172 255 
0.06951 0.164285 0.789329 168 178 171 255 
0.069252 0.161523 0.786681 177 187 182 255 
0.069081 0.158979 0.785045 181 191 178 255 
0.068911 0.156445 0.783421 179 189 180 255 
0.068652 0.153725 0.78181 171 181 168 255 
0.068394 0.151021 0.780649 160 172 160 255 
0.068399 0.148908 0.779488 162 171 167 255 
0.068404 0.146794 0.778327 171 180 177 255 
0.068498 0.144866 0.777271 181 191 178 255 
0.068327 0.142382 0.776215 178 188 181 255 
0.068156 0.139908 0.775159 168 178 171 255 
0.068073 0.137623 0.774451 163 173 166 255 
0.06799 0.135343 0.773744 152 162 148 255 
0.067995 0.13324 0.773036 132 141 130 255 
0.067824 0.130798 0.773096 114 123 111 255 
0.067741 0.128532 0.773156 101 110 98 255 
0.067834 0.126601 0.773217 90 97 85 255 
0.068015 0.124826 0.773989 77 82 72 255 
0.068196 0.123039 0.774761 95 100 89 255 
0.068465 0.121398 0.775533 96 101 90 255 
0.06847 0.119279 0.777058 94 101 91 255 
0.068474 0.117159 0.778582 92 99 89 255 
0.068391 0.114891 0.780096 95 101 93 255 
0.068748 0.113355 0.782682 97 103 95 255 
0.068929 0.111512 0.785335 99 106 96 255 
0.069286 0.109937 0.788232 103 112 100 255 
0.069907 0.108751 0.792784 96 103 93 255 
0.070705 0.107795 0.797671 91 96 85 255 
0.071062 0.106132 0.802201 88 90 79 255 
0.071243 0.104188 0.806467 89 91 80 255 
0.071423 0.102233 0.81065 93 95 84 255 
0.07178 0.100514 0.81484 101 103 94 255 
0.072137 0.098772 0.818392 99 104 93 255 
0.072406 0.09689 0.821814 98 101 89 255 
0.072763 0.095107 0.825156 98 101 89 255 
0.073296 0.093527 0.827904 91 94 82 255 
0.073741 0.091803 0.830642 80 83 72 255 
0.074009 0.089838 0.833375 73 78 64 255 
0.07419 0.087752 0.835669 75 80 68 255 
0.074282 0.085553 0.83797 75 80 68 255 
0.074373 0.083348 0.840278 78 83 71 255 
0.074377 0.081041 0.842266 78 83 71 255 
0.074469 0.078827 0.844282 85 88 75 255 
0.074737 0.076788 0.84639 86 90 72 255 
0.075005 0.074733 0.848065 90 93 80 255 
0.075184 0.072577 0.849703 95 98 84 255 
0.075188 0.070243 0.851266 93 98 87 255 
0.075191 0.06791 0.851863 89 94 83 255 
0.07537 0.06573 0.852525 90 95 84 255 
0.075461 0.063465 0.853147 91 96 85 255 
0.075376 0.061051 0.853046 95 97 90 255 
0.07529 0.058643 0.852945 96 97 91 255 
0.075204 0.056239 0.852843 94 95 89 255 
0.075295 0.053968 0.852135 96 97 91 255 
0.075297 0.05163 0.851396 94 95 89 255 
0.075123 0.049176 0.850583 94 95 89 255 
0.074949 0.046734 0.849158 93 97 91 255 
0.074774 0.044302 0.847741 96 100 94 255 
0.074688 0.04193 0.846362 99 102 98 255 
0.074513 0.039517 0.844985 101 102 97 255 
0.074338 0.037114 0.843634 105 106 101 255 
0.07434 0.034805 0.842333 107 111 104 255 
0.074253 0.032458 0.84162 110 116 110 255 
0.074166 0.030115 0.840913 113 119 113 255 
0.074168 0.027811 0.840215 113 121 114 255 
0.074081 0.025477 0.839934 117 125 118 255 
0.074082 0.023176 0.839657 118 124 116 255 
0.074171 0.020899 0.83938 120 126 118 255 
0.074084 0.018573 0.839421 118 126 119 255 
0.074084 0.016271 0.839462 119 127 119 255 
0.073997 0.013953 0.839503 118 126 119 255 
0.074086 0.011668 0.839921 122 128 120 255 
0.074175 0.009377 0.840342 118 127 117 255 
0.074175 0.007072 0.840761 118 127 117 255 
0.074175 0.004768 0.84148 116 125 115 255 
0.074264 0.002466 0.842208 117 123 115 255 
0.07444 0.000159 0.842951 115 121 113 255 
0.07444 -0.002154 0.843936 113 119 113 255 
0.07444 -0.004467 0.844921 112 118 110 255 
0.074528 -0.006787 0.84593 109 115 107 255 
0.074793 -0.009135 0.847212 110 116 108 255 
0.074969 -0.011486 0.848484 111 117 109 255 
0.074968 -0.013815 0.8497 111 117 109 255 
0.075144 -0.016183 0.850872 114 118 109 255 
0.075232 -0.018539 0.852005 114 118 109 255 
0.075319 -0.020901 0.853135 112 116 107 255 
0.075406 -0.023268 0.853896 112 116 107 255 
0.075405 -0.02561 0.854627 117 121 112 255 
0.075581 -0.028018 0.855392 119 125 117 255 
0.075579 -0.030366 0.856039 117 125 118 255 
0.075666 -0.032752 0.856696 114 120 112 255 
0.075665 -0.035102 0.85734 114 120 112 255 
0.075751 -0.037496 0.858301 116 120 111 255 
0.075749 -0.039848 0.859256 117 121 112 255 
0.075924 -0.042299 0.860215 112 118 110 255 
0.076099 -0.044761 0.86147 114 120 112 255 
0.076185 -0.047179 0.862722 111 117 109 255 
0.076271 -0.049602 0.863974 110 118 111 255 
0.076269 -0.05197 0.865391 110 118 111 255 
0.07662 -0.05459 0.86681 108 116 109 255 
0.076705 -0.057034 0.868225 107 113 105 255 
0.076703 -0.059415 0.869951 106 112 104 255 
0.0767 -0.061796 0.871677 107 114 103 255 
0.07705 -0.064472 0.873404 107 112 101 255 
0.077224 -0.067017 0.875618 107 112 101 255 
0.077397 -0.069572 0.877851 107 112 101 255 
0.077571 -0.072138 0.880107 107 114 103 255 
0.077832 -0.0748 0.883202 105 112 102 255 
0.078094 -0.077477 0.886416 103 112 100 255 
0.078267 -0.080081 0.889674 102 109 99 255 
0.078616 -0.082881 0.894515 103 110 100 255 
0.079054 -0.085798 0.899627 102 109 99 255 
0.079491 -0.088743 0.904937 104 111 99 255 
0.080193 -0.092018 0.910526 105 110 99 255 
0.080983 -0.095441 0.915945 106 111 100 255 
0.081861 -0.099019 0.921116 104 111 99 255 
0.082386 -0.102213 0.923099 109 116 105 255 
0.082293 -0.104655 0.924641 110 117 106 255 
0.082024 -0.106862 0.926214 105 112 102 255 
0.081667 -0.108934 0.926001 99 106 96 255 
0.081398 -0.111103 0.925801 96 102 94 255 
0.081393 -0.113626 0.925621 94 100 92 255 
0.081388 -0.116148 0.925167 97 103 95 255 
0.08156 -0.118927 0.924713 99 106 96 255 
0.081466 -0.121322 0.924259 97 104 94 255 
0.081373 -0.123712 0.924269 99 107 98 255 
0.081456 -0.126369 0.924279 97 106 95 255 
0.081451 -0.128892 0.924289 98 107 96 255 
0.081534 -0.131556 0.924616 101 110 98 255 
0.081441 -0.133936 0.924943 106 115 103 255 
0.081523 -0.136605 0.925269 102 111 99 255 
0.08143 -0.138978 0.925954 101 110 98 255 
0.0816 -0.141804 0.926638 103 112 100 255 
0.081683 -0.144486 0.927322 106 115 103 255 
0.081941 -0.147489 0.928336 109 118 106 255 
0.081848 -0.149863 0.92935 106 115 103 255 
0.08193 -0.152559 0.930363 105 114 102 255 
0.081924 -0.155094 0.931523 106 115 103 255 
0.082094 -0.157967 0.932682 107 116 104 255 
0.082088 -0.160505 0.933841 106 115 103 255 
0.082346 -0.163569 0.934892 108 117 105 255 
0.08234 -0.166115 0.935942 107 115 108 255 
0.082422 -0.168841 0.936992 113 121 114 255 
0.082328 -0.171205 0.937762 114 122 115 255 
0.082409 -0.173936 0.938532 114 122 115 255 
0.082491 -0.176671 0.939303 115 124 112 255 
0.082661 -0.179603 0.940079 115 123 116 255 
0.082742 -0.182351 0.940857 114 123 111 255 
0.082824 -0.185104 0.941636 113 121 114 255 
0.082817 -0.187662 0.94272 115 123 116 255 
0.082986 -0.190624 0.94382 109 117 110 255 
0.083068 -0.193392 0.94492 109 117 110 255 
0.083325 -0.19658 0.946572 104 112 105 255 
0.083318 -0.199153 0.94819 101 109 100 255 
0.083487 -0.202151 0.949891 102 110 103 255 
0.083393 -0.204513 0.951836 99 108 96 255 
0.08365 -0.207742 0.953942 97 106 95 255 
0.083907 -0.210987 0.956046 94 103 92 255 
0.084251 -0.214472 0.958162 95 104 93 255 
0.084332 -0.217298 0.960135 97 106 95 255 
0.084589 -0.220588 0.962097 97 106 95 255 
0.084582 -0.223198 0.963491 93 102 91 255 
0.084927 -0.226746 0.964892 94 103 92 255 
0.085008 -0.229603 0.966279 93 103 87 255 
0.085176 -0.232705 0.966954 95 105 89 255 
0.085081 -0.235089 0.967629 93 103 87 255 
0.085162 -0.237958 0.968304 96 106 92 255 
0.085243 -0.240832 0.96831 100 110 96 255 
0.085323 -0.243711 0.968317 109 119 105 255 
0.085316 -0.246341 0.968324 118 129 116 255 
0.085221 -0.248715 0.967974 126 137 123 255 
0.085126 -0.251083 0.967625 130 143 130 255 
0.084944 -0.253183 0.967276 135 148 135 255 
0.084937 -0.255801 0.966516 143 154 141 255 
0.084929 -0.258418 0.965757 146 157 144 255 
0.08501 -0.261305 0.965009 150 159 149 255 
0.084828 -0.26338 0.963602 151 160 148 255 
0.084733 -0.265718 0.962188 155 164 154 255 
0.084463 -0.267494 0.960678 156 166 153 255 
0.084456 -0.270097 0.958553 158 168 161 255 
0.084273 -0.272132 0.956312 159 169 160 255 
0.084091 -0.274155 0.954034 161 171 158 255 
