ply
format ascii 1.0
comment PCL generated
element vertex 1377
property float x
property float y
property float z
element camera 0
property float view_px
property float view_py
property float view_pz
property float x_axisx
property float x_axisy
property float x_axisz
property float y_axisx
property float y_axisy
property float y_axisz
property float z_axisx
property float z_axisy
property float z_axisz
property float focal
property float scalex
property float scaley
property float centerx
property float centery
property int viewportx
property int viewporty
property float k1
property float k2
end_header
-0.95190877 -0.11659437 1.0314326
-0.95294613 -0.11827815 1.0328403
-0.95383632 -0.11952621 1.0341239
-0.95472491 -0.12077129 1.0354034
-0.95581686 -0.12232846 1.0369253
-0.95665163 -0.12368345 1.0380969
-0.95769209 -0.12535524 1.039512
-0.95894313 -0.12734967 1.0411775
-0.95980328 -0.12943691 1.0422158
-0.96045357 -0.13120002 1.0430034
-0.96152568 -0.1336149 1.0442955
-0.96287894 -0.1362195 1.0459781
-0.96531004 -0.14048958 1.04895
-0.704777 0.35676652 0.70850933
-0.69317985 0.35019493 0.6856882
-0.68994147 0.3500917 0.67916209
-0.69087505 0.34779891 0.68032306
-0.69313949 0.34685373 0.68411875
-0.69543058 0.34601367 0.68797839
-0.69749331 0.34551799 0.69143742
-0.70118833 0.34752241 0.69819963
-0.70596576 0.34883463 0.70697761
-0.71050096 0.35051459 0.71533632
-0.71360427 0.35140571 0.72090924
-0.71622425 0.35241684 0.7255739
-0.7187677 0.35328001 0.73008209
-0.72065288 0.35268188 0.73322546
-0.72242677 0.35223365 0.73617131
-0.72410637 0.35195512 0.73894566
-0.72554302 0.35113806 0.74121833
-0.72697729 0.35032392 0.74348754
-0.72849113 0.34934324 0.74590063
-0.7298559 0.34873986 0.74804902
-0.73121929 0.34813705 0.75019741
-0.73281705 0.34703773 0.75277048
-0.73436248 0.34585029 0.75524229
-0.73575228 0.34499532 0.75742817
-0.73713863 0.34414446 0.75961113
-0.73824233 0.3429867 0.76122493
-0.73941898 0.34167379 0.76297176
-0.74045175 0.34067047 0.76445192
-0.74135017 0.33935586 0.76565307
-0.74225199 0.33803713 0.76685721
-0.74322379 0.33656818 0.76819223
-0.74447036 0.33542308 0.7700882
-0.74565047 0.33442613 0.7718569
-0.74689984 0.33329928 0.77376115
-0.74856246 0.33339655 0.77653629
-0.75038779 0.333305 0.77963209
-0.75214911 0.33335856 0.78260577
-0.7544446 0.33382159 0.78667259
-0.75682628 0.33425432 0.79092169
-0.75955659 0.33447915 0.79588372
-0.76170343 0.33423126 0.79965901
-0.76370239 0.33395582 0.80314094
-0.76536703 0.33394879 0.80594289
-0.76672351 0.3330144 0.80810356
-0.76800418 0.33216208 0.81011087
-0.76927674 0.33130145 0.81210315
-0.77019984 0.32965842 0.81336957
-0.77106756 0.32812384 0.81452161
-0.77198535 0.32648224 0.81577969
-0.77230358 0.32392412 0.81578624
-0.77255833 0.32142115 0.81565303
-0.77279949 0.31886724 0.81548572
-0.77220273 0.3148061 0.81356347
-0.77163553 0.31057787 0.81169987
-0.77061212 0.30624634 0.808842
-0.76910567 0.30131206 0.80493987
-0.76757294 0.29658461 0.80094695
-0.76665616 0.29188275 0.79828471
-0.76667607 0.28837708 0.79761755
-0.76666665 0.28496271 0.79687625
-0.76665795 0.28169698 0.79612076
-0.76723105 0.27939719 0.79659653
-0.7678405 0.27701581 0.79716206
-0.76847994 0.27455014 0.79780459
-0.76936179 0.27264172 0.79895526
-0.77021456 0.27081627 0.8000282
-0.77104223 0.26906818 0.80102926
-0.77194405 0.26748067 0.80218506
-0.77287203 0.26581526 0.8034128
-0.77380049 0.26414919 0.80464113
-0.77482063 0.26280707 0.80603713
-0.77588272 0.26132393 0.80756617
-0.77692437 0.2599116 0.80902958
-0.77811813 0.25873899 0.81083488
-0.77929354 0.25763369 0.81257749
-0.78050059 0.25640506 0.81443721
-0.78167784 0.25512904 0.81623864
-0.78282356 0.25397348 0.81792271
-0.7839821 0.25276262 0.81966239
-0.78479838 0.25094563 0.82063353
-0.78563726 0.24902153 0.82170993
-0.78645599 0.24720025 0.82268447
-0.78695595 0.2446475 0.82299352
-0.78745258 0.2421366 0.82326031
-0.78794229 0.2397036 0.82344425
-0.78837979 0.23711461 0.82351071
-0.78883743 0.23435253 0.82375538
-0.78929555 0.23158979 0.82399881
-0.78992903 0.22925901 0.82457095
-0.79056406 0.22695792 0.82510835
-0.79120165 0.22458535 0.82572228
-0.79196811 0.22246009 0.82668567
-0.7927472 0.22045255 0.82751501
-0.79352415 0.21841097 0.82838094
-0.79431903 0.216398 0.82928008
-0.79510117 0.21433753 0.83023691
-0.7958982 0.2123211 0.83113885
-0.79673332 0.21038276 0.83212078
-0.79758334 0.20845735 0.83308303
-0.7984128 0.20649493 0.83409381
-0.79933482 0.20474309 0.83529735
-0.80024278 0.20297986 0.83651835
-0.80116361 0.20122874 0.8377201
-0.80209738 0.19953889 0.83899951
-0.80306536 0.19786197 0.84024853
-0.80403495 0.1961807 0.84150147
-0.80493939 0.1943422 0.84261489
-0.80582464 0.19250071 0.84374076
-0.80668682 0.19066417 0.84487402
-0.80755413 0.18872696 0.84590757
-0.80839753 0.18679458 0.84694898
-0.80929375 0.18484247 0.84798485
-0.81015742 0.18287212 0.84900796
-0.8109948 0.180911 0.85003215
-0.8118329 0.17894995 0.85105753
-0.81266475 0.17697632 0.85207015
-0.81352609 0.17497933 0.8530845
-0.81438839 0.17297453 0.85409909
-0.81519759 0.17094141 0.85506296
-0.81600589 0.16890812 0.85602731
-0.81678355 0.16691232 0.85699069
-0.81763512 0.16486496 0.85797751
-0.818488 0.1628139 0.85896772
-0.81941032 0.16066682 0.85996974
-0.8202405 0.15853804 0.86090785
-0.8210004 0.15650374 0.86183453
-0.82175767 0.15447515 0.86275792
-0.82238984 0.15203083 0.8633514
-0.82314193 0.14942318 0.86398518
-0.82386231 0.14686513 0.86461622
-0.8244164 0.14391524 0.86490035
-0.82493448 0.14102387 0.86517847
-0.82565629 0.13793206 0.86558408
-0.82626885 0.13505113 0.86597794
-0.8268342 0.13221836 0.86634535
-0.82729483 0.1294952 0.86664712
-0.82801867 0.12701535 0.86734521
-0.82874584 0.12453133 0.86804622
-0.8295325 0.12198216 0.86879092
-0.83030522 0.11977571 0.86966401
-0.83113754 0.11750412 0.870579
-0.83191103 0.11529624 0.87145317
-0.8327961 0.11313218 0.87247765
-0.83368397 0.11096466 0.87350446
-0.83444524 0.10894012 0.87443703
-0.83523035 0.10675669 0.87533498
-0.83608103 0.10449535 0.87628436
-0.83693504 0.10223126 0.87723684
-0.83750111 0.099309027 0.87759072
-0.83806479 0.096374869 0.87793845
-0.83862412 0.093419075 0.87827301
-0.83835417 0.088337064 0.87679422
-0.83805525 0.082915306 0.87515932
-0.83769673 0.076815784 0.87321162
-0.83675933 0.068837464 0.86986548
-0.83545822 0.057562292 0.86490822
-0.83350694 0.043585002 0.8581953
-0.83229804 0.031382024 0.85308784
-0.83188707 0.023343682 0.85047567
-0.83177483 0.017319024 0.84895062
-0.8322984 0.013849616 0.849132
-0.8327859 0.010584891 0.8493365
-0.83319813 0.0074523687 0.84948349
-0.83418167 0.0053121448 0.85071874
-0.8350848 0.0033012629 0.85188949
-0.83606458 0.0011610389 0.85312045
-0.83707422 -0.00091201067 0.85441148
-0.83825725 -0.003236413 0.85585773
-0.83927017 -0.0053068399 0.85715675
-0.84050536 -0.0072094798 0.85881108
-0.84146374 -0.0087333918 0.86020899
-0.84260607 -0.010508597 0.8617757
-0.84358883 -0.011605561 0.8633365
-0.84466124 -0.01282078 0.86498106
-0.84592569 -0.014291704 0.86680925
-0.84713405 -0.015891314 0.86851829
-0.84854281 -0.017760754 0.87042403
-0.84964991 -0.019226611 0.8720367
-0.85077089 -0.021023333 0.873564
-0.85189104 -0.022820115 0.87509197
-0.85301125 -0.024616897 0.87661988
-0.85409349 -0.026497602 0.87806922
-0.85496104 -0.028084219 0.87930274
-0.85604072 -0.029960692 0.88074869
-0.85691571 -0.031897485 0.88188839
-0.85801154 -0.034134567 0.88324916
-0.85910922 -0.036375821 0.88461214
-0.85997844 -0.038729072 0.88561994
-0.8610763 -0.041398346 0.88686061
-0.86206234 -0.043914616 0.8879891
-0.86316216 -0.046609223 0.88922834
-0.86403048 -0.048982978 0.89023077
-0.86478013 -0.051189482 0.8911103
-0.86612058 -0.053807378 0.8927204
-0.86710423 -0.055927336 0.89396143
-0.86796552 -0.057875097 0.89507455
-0.86894631 -0.059539735 0.89644063
-0.87005061 -0.061375678 0.89793491
-0.87140632 -0.063567281 0.89969254
-0.87249297 -0.064984858 0.90127826
-0.87383229 -0.066761672 0.90313077
-0.87491632 -0.068175137 0.90471303
-0.87621272 -0.069577456 0.90660685
-0.87724626 -0.070605159 0.90822011
-0.87867248 -0.07219255 0.91025198
-0.88003784 -0.073434114 0.91229028
-0.88126779 -0.074481606 0.91418296
-0.88208741 -0.074939668 0.91563487
-0.88374877 -0.07548821 0.91829348
-0.88541001 -0.076035321 0.92095214
-0.88707095 -0.076583087 0.92361021
-0.88884717 -0.075309932 0.92692941
-0.8902657 -0.073244035 0.92993116
-0.89180869 -0.071370125 0.93306279
-0.89329863 -0.069036603 0.93623495
-0.89509571 -0.067572296 0.93962234
-0.8966924 -0.065989196 0.9427442
-0.89799738 -0.065028131 0.94526595
-0.89973915 -0.06469959 0.94826436
-0.90132827 -0.064149499 0.9510954
-0.90266323 -0.064155042 0.9533993
-0.90414578 -0.064375281 0.9558652
-0.90531933 -0.064144313 0.95798999
-0.90650076 -0.063869059 0.96013427
-0.90767431 -0.063583195 0.96226931
-0.90899843 -0.063515484 0.96456873
-0.91049993 -0.063615084 0.96708858
-0.91170043 -0.063202143 0.96929014
-0.91321367 -0.063247025 0.97183961
-0.91447926 -0.06324327 0.97403008
-0.91558695 -0.06297195 0.97605121
-0.9169957 -0.063214481 0.97839046
-0.918136 -0.063439071 0.98033035
-0.91958505 -0.064186573 0.98259771
-0.92037141 -0.063936889 0.98412633
-0.92146426 -0.065470278 0.98565608
-0.92222935 -0.066480458 0.98682696
-0.92332387 -0.068001926 0.98836172
-0.92365742 -0.069957972 0.98864019
-0.92479491 -0.0733096 0.98977673
-0.92654681 -0.077901781 0.99152648
-0.9283334 -0.082480311 0.99333632
-0.9291867 -0.085273266 0.99419099
-0.92937434 -0.086924732 0.99432695
-0.93011045 -0.087982237 0.99543899
-0.931355 -0.089888573 0.99710822
-0.93225425 -0.091229975 0.99839711
-0.93353844 -0.092376292 1.0003166
-0.93446976 -0.092948258 1.001843
-0.93575251 -0.094089568 1.0037611
-0.93728781 -0.095356166 1.0060318
-0.938465 -0.096043527 1.0079021
-0.93963897 -0.096730173 1.0097668
-0.94023275 -0.09659189 1.0109532
-0.94137084 -0.097329438 1.0127492
-0.94231421 -0.097781301 1.0143181
-0.94344378 -0.099238515 1.015923
-0.94457465 -0.10069638 1.0175279
-0.9457047 -0.10215431 1.0191334
-0.94667989 -0.10396516 1.0204142
-0.94765419 -0.10577625 1.0216955
-0.94863009 -0.10758716 1.0229776
-0.94941819 -0.10907334 1.0240531
-0.95040512 -0.11085767 1.0253584
-0.95159316 -0.11294669 1.0268977
-0.9528181 -0.11496383 1.0285118
-0.95384157 -0.11667556 1.0298932
-0.95466238 -0.11807984 1.0310364
-0.95573997 -0.11967117 1.0325279
-0.95681792 -0.12126333 1.0340202
-0.95789587 -0.12285554 1.0355123
-0.95893145 -0.12454844 1.0369153
-0.95975703 -0.12592036 1.0380725
-0.96058083 -0.12728953 1.0392292
-0.96145678 -0.12933952 1.0402987
-0.96233261 -0.13138968 1.0413702
-0.96363801 -0.1340965 1.0429444
-0.96501303 -0.13666433 1.044662
-0.96726072 -0.14056689 1.0474038
-0.96712804 -0.14082438 1.0473497
-0.70723468 0.35743058 0.70852864
-0.69257754 0.34921819 0.67940319
-0.69010782 0.34940791 0.67421508
-0.69165969 0.34723192 0.67657554
-0.69453466 0.34602076 0.68155676
-0.69695193 0.34548429 0.68570757
-0.6992783 0.3451913 0.68970621
-0.70305997 0.34742081 0.69668531
-0.70802289 0.34882736 0.70591122
-0.71244299 0.35069996 0.71412861
-0.71549594 0.35150832 0.71963549
-0.71807492 0.35243982 0.72423095
-0.72057295 0.35321677 0.72866517
-0.72243023 0.3525703 0.73176891
-0.72401547 0.35243809 0.73437095
-0.72576421 0.35195231 0.73727787
-0.72719735 0.35112602 0.7395469
-0.72870845 0.35013008 0.74196237
-0.73005641 0.34948391 0.74407679
-0.73141479 0.34885806 0.74621058
-0.73285007 0.34806478 0.74848926
-0.73435831 0.34711036 0.75090766
-0.73588181 0.34587809 0.75335026
-0.73725307 0.34498012 0.75550324
-0.73862141 0.3440842 0.75765377
-0.73979735 0.34276193 0.75940353
-0.74097162 0.34144247 0.76115102
-0.74200618 0.34043449 0.76262754
-0.74306166 0.33885697 0.76413172
-0.74398369 0.33758327 0.76537186
-0.74497288 0.33615696 0.76674378
-0.74610013 0.33562097 0.76841325
-0.74735761 0.33479035 0.77034134
-0.74875802 0.33372051 0.77256125
-0.75066531 0.33408564 0.77583909
-0.75267017 0.33441022 0.77932203
-0.75461042 0.33487329 0.78267485
-0.75718719 0.33573046 0.78735197
-0.76017284 0.33625975 0.79288995
-0.76310647 0.33676288 0.79833853
-0.76518679 0.33642745 0.80202025
-0.76689804 0.33628964 0.80492771
-0.76857221 0.33608824 0.80776381
-0.76971817 0.33518514 0.80949521
-0.77091849 0.33416837 0.81134242
-0.77206171 0.33326247 0.81306881
-0.77295655 0.33134824 0.81429237
-0.77370459 0.32977292 0.81518763
-0.77450091 0.32808393 0.81619239
-0.77475363 0.32558519 0.81604487
-0.77504861 0.3229574 0.81599218
-0.77533841 0.32031131 0.81592929
-0.77486289 0.31651005 0.81423324
-0.77453291 0.31242979 0.81287259
-0.77380431 0.30837053 0.81061125
-0.77260053 0.30336529 0.80733442
-0.77092475 0.29847035 0.8029542
-0.76959717 0.29354087 0.7993381
-0.76912796 0.28978848 0.79756427
-0.76897836 0.28604817 0.79651773
-0.76883119 0.28245521 0.79545593
-0.76935899 0.27989286 0.79585046
-0.76988649 0.27732962 0.79624611
-0.77041388 0.2747665 0.79664171
-0.77124947 0.27289909 0.79767847
-0.77208555 0.2710309 0.79871571
-0.77289867 0.26924109 0.79967904
-0.77382177 0.26756454 0.80089647
-0.77474457 0.2658872 0.80211329
-0.7756477 0.26428252 0.80326235
-0.77667809 0.26284158 0.80470181
-0.77770817 0.26139987 0.80614054
-0.77873898 0.25995815 0.80758053
-0.77990544 0.2588228 0.80930269
-0.78110057 0.25756145 0.81114626
-0.78229058 0.25630707 0.81298465
-0.7834723 0.25504875 0.81480652
-0.78462648 0.25391203 0.81650805
-0.78579009 0.25271982 0.8182655
-0.78662074 0.25092822 0.81925946
-0.78746903 0.24903053 0.82036018
-0.78830218 0.24723476 0.82135755
-0.7888037 0.24468017 0.82166314
-0.78929937 0.24221325 0.82187802
-0.78980142 0.23973435 0.82210129
-0.7902472 0.23714221 0.82215941
-0.7907033 0.23437661 0.82240081
-0.79116046 0.23161179 0.82264233
-0.79181165 0.22928679 0.82328969
-0.79247296 0.22706264 0.82382268
-0.7931242 0.22470039 0.82451177
-0.79394329 0.22275996 0.82545882
-0.79475743 0.22078788 0.82644236
-0.79557991 0.21884167 0.82739389
-0.7964164 0.21691513 0.82842302
-0.79725319 0.21498913 0.82945281
-0.79810166 0.21308351 0.83045506
-0.79896879 0.21121192 0.8314966
-0.79982603 0.20932031 0.83256465
-0.80069697 0.20744228 0.83361143
-0.80161959 0.20569676 0.83481699
-0.80252558 0.2039395 0.83604169
-0.80346495 0.20220274 0.83722824
-0.80439079 0.2004987 0.83849573
-0.80535513 0.19880813 0.83973038
-0.80627763 0.19710833 0.84099507
-0.80718344 0.19527572 0.8421061
-0.80809021 0.19343883 0.84321988
-0.80894959 0.19160473 0.84435481
-0.80979049 0.18967313 0.84539026
-0.81063116 0.18774086 0.84642512
-0.81152809 0.18579137 0.84745312
-0.81238389 0.18380606 0.84845448
-0.81324089 0.18181711 0.84945744
-0.81406945 0.17983931 0.85046375
-0.81486392 0.17787677 0.85146505
-0.81572324 0.17587799 0.85246998
-0.81658292 0.17387348 0.85347623
-0.81739056 0.17184532 0.85443854
-0.81826723 0.16975546 0.85540664
-0.81907547 0.1677202 0.8563686
-0.81992018 0.16565055 0.85733795
-0.82073057 0.16361672 0.85830361
-0.82157767 0.1615392 0.85927558
-0.82239157 0.15937644 0.86017442
-0.82316691 0.15725714 0.86106813
-0.82390392 0.15518993 0.86195469
-0.8245455 0.15277207 0.86257064
-0.82531369 0.1501891 0.86321813
-0.82604581 0.14765519 0.86386538
-0.82662791 0.14476252 0.86419493
-0.8271721 0.14192963 0.86452138
-0.82782435 0.1389972 0.86491323
-0.82842702 0.13609797 0.86527574
-0.82903349 0.13319087 0.86564505
-0.82953447 0.13039082 0.86595654
-0.83032811 0.12769294 0.86662483
-0.83101308 0.12510496 0.8672325
-0.83176017 0.12245214 0.86788052
-0.83255589 0.12009269 0.86871457
-0.83329201 0.11779529 0.86950994
-0.83396482 0.11556482 0.87026137
-0.83468533 0.11345404 0.87111622
-0.83553445 0.11120355 0.87205923
-0.83638573 0.10894954 0.87300515
-0.83718413 0.10656959 0.87383986
-0.8379851 0.1041854 0.87467796
-0.83871812 0.10187614 0.87546599
-0.83920217 0.098763287 0.87564242
-0.83974361 0.095528603 0.87584275
-0.84021008 0.092356205 0.87597901
-0.83988178 0.086617112 0.87417197
-0.83940506 0.080766141 0.87214637
-0.83888137 0.073989987 0.86972249
-0.83782637 0.064887702 0.86578882
-0.83656424 0.053042591 0.86060715
-0.83497494 0.039743781 0.85451424
-0.83453059 0.031105876 0.85158318
-0.83434749 0.024955571 0.84989184
-0.83425975 0.019558072 0.84859633
-0.83481103 0.016167343 0.84883255
-0.83543998 0.012646019 0.84912652
-0.8359642 0.0094772577 0.84940791
-0.83687413 0.0071824789 0.85049409
-0.83778363 0.0048869848 0.85157955
-0.83869302 0.0025929213 0.85266507
-0.8397032 0.00020331144 0.85384929
-0.84071958 -0.0021787882 0.85504723
-0.84174275 -0.004555285 0.85625756
-0.8430317 -0.0066764355 0.85790581
-0.84404618 -0.0084106326 0.85931873
-0.84495807 -0.010020375 0.8606351
-0.84594768 -0.011087298 0.86222839
-0.84702891 -0.0122751 0.86390251
-0.84820521 -0.013585925 0.86566281
-0.84944057 -0.015117586 0.86743128
-0.85067582 -0.016647995 0.86919981
-0.85191071 -0.018179119 0.87096775
-0.85315037 -0.020075262 0.87262678
-0.85428536 -0.021833599 0.87418646
-0.85542011 -0.023592532 0.87574553
-0.85641992 -0.025265396 0.87714547
-0.85752571 -0.027081072 0.87864804
-0.85852134 -0.028746784 0.88004231
-0.85955024 -0.030733049 0.88138348
-0.86046523 -0.032565713 0.88261294
-0.86160678 -0.034703314 0.8840642
-0.86237675 -0.036853373 0.88499379
-0.8634941 -0.039474547 0.88626611
-0.86461592 -0.042102098 0.88754463
-0.86581707 -0.044999421 0.88885587
-0.86654401 -0.047251642 0.88969505
-0.86739028 -0.049665153 0.89065349
-0.86857939 -0.052192271 0.89206237
-0.86977303 -0.054725826 0.89347762
-0.87059635 -0.056752145 0.89451885
-0.87153316 -0.058514118 0.89579761
-0.87259352 -0.060447454 0.89720273
-0.87378252 -0.062557399 0.89873791
-0.87496006 -0.064231217 0.90038407
-0.87639761 -0.066267192 0.90229678
-0.87744546 -0.067761958 0.90380949
-0.87860799 -0.068986118 0.90556312
-0.87963313 -0.07002002 0.90717483
-0.88092446 -0.071423829 0.90906
-0.88215446 -0.072467387 0.91095924
-0.88338226 -0.073505938 0.91285574
-0.88433057 -0.074151933 0.91445899
-0.88596153 -0.074764073 0.91705531
-0.88759136 -0.075376987 0.91965151
-0.88934624 -0.076227725 0.92236036
-0.89133251 -0.075515985 0.92584181
-0.89258063 -0.073283613 0.92867351
-0.89408237 -0.071482301 0.93174851
-0.89558172 -0.069101512 0.93497813
-0.89725792 -0.067355275 0.93828368
-0.89871562 -0.065517485 0.94129235
-0.90004069 -0.064487517 0.94388175
-0.90150702 -0.063657105 0.94661975
-0.90327114 -0.063251197 0.94967544
-0.90476066 -0.063453555 0.95216209
-0.90624833 -0.063651681 0.95464647
-0.90757805 -0.063623369 0.95695961
-0.90890497 -0.063583076 0.9592703
-0.9102273 -0.063534915 0.96157479
-0.91138685 -0.063249648 0.96370018
-0.91271102 -0.06315589 0.96601629
-0.91388714 -0.062781632 0.96818763
-0.91538119 -0.062865913 0.97070384
-0.91631752 -0.062383652 0.97254413
-0.91771126 -0.062662899 0.97485751
-0.91910315 -0.062936366 0.9771688
-0.92039829 -0.063421726 0.97927827
-0.92168516 -0.063914001 0.98137456
-0.92263049 -0.063915074 0.983091
-0.92358333 -0.065136492 0.98449719
-0.92437029 -0.066086352 0.98572552
-0.92549169 -0.067547083 0.98731792
-0.92599308 -0.069761217 0.98778808
-0.92698383 -0.072812498 0.98877007
-0.92828333 -0.076495767 0.9900474
-0.93021023 -0.081438422 0.99193668
-0.93136269 -0.084878683 0.99306589
-0.93151778 -0.086588919 0.9931525
-0.93237436 -0.088036239 0.99435484
-0.93340087 -0.089767754 0.99573743
-0.93442726 -0.091499209 0.99712002
-0.93570131 -0.092673481 0.99901742
-0.93661618 -0.093274832 1.0005246
-0.9380694 -0.094732046 1.0026181
-0.93924052 -0.095434487 1.0044811
-0.9404093 -0.096135437 1.0063407
-0.94120777 -0.096249163 1.0077906
-0.94197571 -0.09640193 1.0091844
-0.94310665 -0.09714669 1.010973
-0.94403905 -0.097607553 1.0125337
-0.94535953 -0.099356294 1.0143523
-0.94648808 -0.10081756 1.0159528
-0.94761634 -0.10228115 1.0175543
-0.94860202 -0.10406482 1.0188595
-0.94958937 -0.10584998 1.0201654
-0.95057625 -0.10763437 1.0214725
-0.95136607 -0.10911304 1.0225562
-0.95255846 -0.1111927 1.0240986
-0.95395553 -0.11357886 1.025877
-0.95496804 -0.11532205 1.0272324
-0.95598102 -0.11706597 1.0285884
-0.95658034 -0.11819065 1.0294726
-0.95743495 -0.11950487 1.0306945
-0.95870584 -0.12144202 1.0323939
-0.95997924 -0.12338346 1.0340966
-0.96100819 -0.12509453 1.0354853
-0.96161342 -0.1261664 1.0363871
-0.96242791 -0.12755114 1.0375295
-0.96331996 -0.12956494 1.0386325
-0.96442676 -0.13190562 1.0399843
-0.96575296 -0.1345799 1.0415894
-0.9669345 -0.13678014 1.0430895
-0.96877486 -0.13998079 1.0453523
-0.96886671 -0.14052618 1.0455959
-0.7027908 0.35060197 0.69469243
-0.69153798 0.34840423 0.67214441
-0.69096011 0.34811401 0.67047739
-0.69268465 0.34633479 0.6732198
-0.69580233 0.34529573 0.67873716
-0.6986047 0.34483916 0.68367624
-0.70133263 0.34467605 0.68849385
-0.70546126 0.34694141 0.6961956
-0.71033603 0.34863231 0.70535547
-0.7146402 0.35069466 0.71341962
-0.71738762 0.35161096 0.71836179
-0.71992481 0.35246265 0.72288859
-0.72229171 0.35332847 0.72708291
-0.72412419 0.35263723 0.73015261
-0.72569633 0.35247067 0.73272663
-0.7274276 0.35194942 0.73560756
-0.72877818 0.35128927 0.73772192
-0.73020566 0.35045561 0.739986
-0.73163188 0.34962571 0.74224675
-0.73305953 0.34880757 0.74451405
-0.73448503 0.34799439 0.74677867
-0.73598099 0.34701842 0.74918449
-0.73741043 0.34590697 0.75145262
-0.73876369 0.34496391 0.75357312
-0.74004531 0.34418437 0.75555062
-0.74135709 0.34253693 0.75758022
-0.74246103 0.34136799 0.75919038
-0.74363112 0.34004474 0.7609362
-0.74463856 0.3386611 0.76234615
-0.74564666 0.3372775 0.76375735
-0.74659204 0.33604103 0.76503736
-0.74786603 0.33553666 0.76699924
-0.74920249 0.33488438 0.76909161
-0.75068641 0.33401197 0.77149653
-0.75276685 0.33477542 0.77514189
-0.75495249 0.3355155 0.77901191
-0.75716901 0.33634531 0.78294992
-0.76039523 0.3374058 0.78904051
-0.76386392 0.33809054 0.79568142
-0.76676655 0.33886695 0.80112761
-0.76844466 0.33867201 0.80398118
-0.77002943 0.33852205 0.80663371
-0.77159679 0.33834273 0.8092519
-0.77267349 0.33729488 0.81084144
-0.77375138 0.33624786 0.81243116
-0.77482891 0.33520019 0.81402016
-0.77555549 0.3333602 0.81488097
-0.77623975 0.33163556 0.81563675
-0.77696753 0.32979339 0.81649923
-0.77724612 0.32713798 0.81640828
-0.7774806 0.32457393 0.81620854
-0.77771437 0.32198679 0.81600153
-0.77737975 0.31829101 0.81459206
-0.77705735 0.31440854 0.81322253
-0.77656323 0.31048214 0.81145084
-0.77552295 0.30546242 0.80851471
-0.77412009 0.3004362 0.804703
-0.77270281 0.29528981 0.80084693
-0.77170265 0.29115298 0.79781479
-0.77134007 0.28709054 0.79629058
-0.77100444 0.2832135 0.7947911
-0.77148473 0.2803942 0.79511338
-0.77187097 0.27780646 0.79516119
-0.77232212 0.27506775 0.79539746
-0.77311862 0.27323979 0.7963202
-0.77391636 0.27140814 0.79724622
-0.77475941 0.26941454 0.79832625
-0.77567804 0.26772469 0.7995339
-0.77659869 0.26603419 0.80074275
-0.7775178 0.26434362 0.80195093
-0.77853608 0.26287532 0.80336523
-0.77955472 0.26140779 0.80478013
-0.78055906 0.26000601 0.8061291
-0.78172815 0.25877684 0.80789274
-0.78289485 0.25755203 0.80965298
-0.78407121 0.25626928 0.81147128
-0.78525674 0.25502712 0.81331414
-0.78642052 0.2539072 0.81503475
-0.78759927 0.25267637 0.8168686
-0.78844953 0.25085717 0.81794053
-0.78929996 0.24903804 0.81901085
-0.79014719 0.24726844 0.82003057
-0.79065025 0.24471349 0.82033277
-0.7911551 0.24215275 0.82063872
-0.7916621 0.23967683 0.82085329
-0.79211414 0.23712879 0.82085425
-0.79256743 0.23436183 0.8210907
-0.79302466 0.23163378 0.82128465
-0.79369414 0.22934997 0.82196999
-0.79438078 0.2271685 0.82253748
-0.79505408 0.22487837 0.82322794
-0.79591835 0.2230311 0.82426155
-0.79677558 0.22115141 0.82533383
-0.79762399 0.21924633 0.82643932
-0.79851979 0.21745694 0.82753778
-0.79939401 0.21561843 0.8286984
-0.80029225 0.21382475 0.82980025
-0.80117553 0.21200377 0.83092666
-0.80207437 0.21019816 0.83202732
-0.80295974 0.20837516 0.83315492
-0.80390048 0.20664912 0.8343398
-0.8048045 0.20489806 0.83556819
-0.80574733 0.20316851 0.83675593
-0.80666322 0.20145237 0.83801049
-0.80762178 0.19975019 0.83922952
-0.808559 0.19804096 0.84046626
-0.80949229 0.1962105 0.84156483
-0.81037706 0.19437468 0.84269106
-0.81123537 0.19254184 0.84382832
-0.81204653 0.19061249 0.84486938
-0.81291473 0.18867302 0.8458941
-0.81378496 0.18673003 0.84692174
-0.81463206 0.18472809 0.84790176
-0.81544906 0.18273419 0.84888601
-0.81623238 0.18075538 0.84987164
-0.81708598 0.17875332 0.8508625
-0.81790537 0.17676646 0.851852
-0.81880099 0.17473823 0.85285127
-0.81964391 0.17268711 0.85381526
-0.82048929 0.17062986 0.85478026
-0.82129586 0.16859591 0.8557415
-0.8221733 0.16647708 0.85669571
-0.82297349 0.1644187 0.85764003
-0.8238135 0.16232127 0.85859054
-0.82457179 0.16016501 0.85944706
-0.82532889 0.15800792 0.86030346
-0.82604456 0.15590465 0.86115557
-0.82673931 0.15346104 0.86180049
-0.82748115 0.15095794 0.86245614
-0.82822716 0.14844769 0.86311918
-0.82883608 0.14561146 0.86349404
-0.82935482 0.14289147 0.86385
-0.82998073 0.14006704 0.86425525
-0.83057249 0.13714731 0.86458611
-0.83122551 0.13416523 0.86495239
-0.83182818 0.13123059 0.86530054
-0.83252352 0.12848824 0.86583626
-0.83310342 0.12585813 0.86631042
-0.83380675 0.12310719 0.86685783
-0.83462691 0.12060022 0.86764455
-0.83532268 0.11821681 0.868357
-0.83601761 0.11583334 0.86906999
-0.83676445 0.11356676 0.86988884
-0.83757931 0.11122841 0.87075275
-0.838395 0.1088872 0.87161946
-0.83921325 0.1063078 0.87238955
-0.83989394 0.10387546 0.8730678
-0.84057349 0.10144216 0.87374592
-0.84097171 0.098126829 0.87373638
-0.84142023 0.09466809 0.87373096
-0.8418479 0.091144383 0.87367892
-0.84135556 0.085002899 0.87150121
-0.84071708 0.078763783 0.86911935
-0.84007698 0.070611894 0.86599874
-0.8389771 0.060783625 0.86169183
-0.83784854 0.0485605 0.8564589
-0.8368336 0.037825167 0.85196245
-0.83681452 0.031210721 0.85026598
-0.83672434 0.026407897 0.84917057
-0.83671308 0.021478415 0.84812814
-0.83733857 0.018269837 0.84851754
-0.83797288 0.015073001 0.84892392
-0.8386156 0.011886656 0.84934598
-0.8395822 0.0091084242 0.85032725
-0.84048951 0.0064995289 0.85129607
-0.84140396 0.0038968921 0.85227787
-0.84225166 0.0014650226 0.8532353
-0.8431837 -0.0011076927 0.85425389
-0.84412509 -0.0036677718 0.85528839
-0.84537315 -0.0058870316 0.85684079
-0.84624952 -0.0075777769 0.8580929
-0.84711248 -0.0092788339 0.85932088
-0.84820557 -0.010442078 0.86103094
-0.84939486 -0.011728048 0.86282331
-0.85058147 -0.013011873 0.86461157
-0.85184622 -0.014477193 0.86644119
-0.85289955 -0.015672326 0.86807925
-0.85416138 -0.017132699 0.86990499
-0.85530949 -0.018849671 0.87149423
-0.85667461 -0.020847678 0.87328404
-0.85782415 -0.022568226 0.87487489
-0.85906863 -0.024467051 0.87653762
-0.86009157 -0.026077151 0.87799352
-0.86111128 -0.02768296 0.87944472
-0.86206996 -0.02941817 0.88077068
-0.86302543 -0.031149089 0.88209212
-0.86409569 -0.033030331 0.88352144
-0.86487877 -0.035135388 0.88448894
-0.86601722 -0.037709773 0.88579333
-0.86715984 -0.040291309 0.88710523
-0.86846733 -0.043389261 0.88848543
-0.86929381 -0.045848966 0.88940251
-0.87024301 -0.048472583 0.89044005
-0.87127852 -0.050911486 0.8916533
-0.87231529 -0.053355455 0.89286977
-0.87310064 -0.055459023 0.89383924
-0.87411904 -0.05748868 0.89515495
-0.87526619 -0.059693575 0.89659905
-0.87641513 -0.061902702 0.89804536
-0.8772949 -0.063298881 0.89935797
-0.87843657 -0.065048814 0.90093023
-0.87944329 -0.06661582 0.90236729
-0.88086665 -0.068210363 0.90438354
-0.88188457 -0.069248259 0.90599215
-0.88330996 -0.070843399 0.90800971
-0.88426203 -0.071500957 0.90963447
-0.88534737 -0.072339892 0.91139215
-0.88628685 -0.072976232 0.91299999
-0.88803142 -0.0738343 0.91568446
-0.88976681 -0.074721158 0.91835034
-0.89149463 -0.075635254 0.92099661
-0.89345014 -0.074982524 0.92442179
-0.89477527 -0.073070228 0.92730618
-0.89611006 -0.0710814 0.93022072
-0.89760256 -0.068681836 0.93347365
-0.89942133 -0.06713742 0.93694514
-0.90088624 -0.065257609 0.94000089
-0.90207976 -0.063947499 0.94250011
-0.90341449 -0.062832415 0.94514471
-0.9052031 -0.062354028 0.94826043
-0.90685296 -0.062752664 0.95092791
-0.9085024 -0.063150525 0.95359486
-0.90983677 -0.063102365 0.95592922
-0.91131389 -0.063295782 0.95840275
-0.91246957 -0.063031137 0.96053529
-0.91361773 -0.062755108 0.96265751
-0.91460228 -0.062223375 0.96461034
-0.91591549 -0.062116742 0.9669224
-0.9175483 -0.062484205 0.96956742
-0.91861546 -0.06229645 0.97153878
-0.91983551 -0.062352419 0.97366393
-0.9210515 -0.062399089 0.97578406
-0.92250192 -0.06314671 0.97805554
-0.92361981 -0.063388407 0.97997659
-0.92489308 -0.063894272 0.9820537
-0.92587203 -0.065056443 0.98351806
-0.92685133 -0.066209614 0.98498464
-0.92782909 -0.067354381 0.98645234
-0.92816663 -0.069286346 0.98676336
-0.92900914 -0.072030008 0.98759758
-0.93032897 -0.075682282 0.98889512
-0.93224239 -0.080687225 0.99070942
-0.93370789 -0.08477205 0.9921115
-0.93400532 -0.086824536 0.99233347
-0.93464267 -0.088089526 0.9932664
-0.93526757 -0.089366317 0.99417633
-0.93624294 -0.09120971 0.99545336
-0.93750584 -0.092404127 0.9973284
-0.93876827 -0.093599498 0.99920446
-0.94003153 -0.094794691 1.00108
-0.94119322 -0.095512807 1.0029305
-0.94216996 -0.095933855 1.0045819
-0.94277132 -0.09575659 1.0058309
-0.94390333 -0.096500278 1.0076272
-0.94503015 -0.097250879 1.0094118
-0.94634455 -0.098294139 1.0114006
-0.94747138 -0.099762559 1.0129988
-0.94859821 -0.10123092 1.0145969
-0.94952762 -0.10240722 1.0159746
-0.95072532 -0.10445851 1.0175273
-0.95172489 -0.10621923 1.0188599
-0.95292795 -0.1082769 1.0204184
-0.95371985 -0.10975176 1.0215142
-0.95492029 -0.11182696 1.023065
-0.9561224 -0.11390656 1.0246197
-0.95712352 -0.11568052 1.0259504
-0.9579168 -0.11714762 1.0270479
-0.95870793 -0.11861116 1.0281426
-0.95954627 -0.11996001 1.0293369
-0.96080524 -0.12193263 1.031006
-0.9620676 -0.12390941 1.0326779
-0.96308982 -0.12564081 1.0340517
-0.96368456 -0.12673205 1.0349422
-0.96449035 -0.12813604 1.0360723
-0.96561503 -0.13044018 1.0374548
-0.96652502 -0.13242322 1.0385952
-0.96787196 -0.13506472 1.0402293
-0.96929413 -0.13755804 1.0420156
-0.69599968 0.34627861 0.6761198
-0.69080806 0.34731814 0.66531777
-0.69170427 0.34695649 0.66649622
-0.69378465 0.34557617 0.66998339
-0.69704592 0.34489739 0.67585862
-0.70001078 0.34482908 0.6811766
-0.70317703 0.34488571 0.68691254
-0.70759606 0.34706604 0.69524193
-0.7123273 0.34889024 0.704202
-0.71646726 0.35100925 0.7119965
-0.71916914 0.35183781 0.71686804
-0.72176069 0.35245401 0.72151715
-0.723993 0.35338968 0.72545046
-0.72571677 0.35282588 0.72832078
-0.72727478 0.35261732 0.73086345
-0.72891033 0.35223228 0.73356032
-0.73043019 0.35124636 0.73601359
-0.7318697 0.35044044 0.73830861
-0.7333079 0.3496381 0.74060029
-0.73465949 0.3489835 0.74271739
-0.73608363 0.34816098 0.74498188
-0.73764563 0.34701025 0.74753481
-0.73897183 0.34599134 0.74960005
-0.74029541 0.34497675 0.75166196
-0.74161601 0.34396556 0.75372154
-0.7429148 0.34229645 0.75573891
-0.74394625 0.34126234 0.75719571
-0.74510849 0.33991653 0.75892794
-0.7461611 0.33862516 0.76043028
-0.74721408 0.33733445 0.76193315
-0.7482667 0.33604309 0.76343542
-0.74967527 0.33583191 0.76566935
-0.75128889 0.3352485 0.76835322
-0.75284678 0.33482915 0.7709167
-0.75517911 0.3358981 0.77510118
-0.75744689 0.33710122 0.77914327
-0.76021206 0.33814812 0.78428137
-0.76386392 0.33897102 0.79138434
-0.76713645 0.3395724 0.79769784
-0.76955938 0.34032243 0.8021524
-0.77101976 0.33990371 0.80455422
-0.77246636 0.33946043 0.80692863
-0.7738986 0.33899492 0.80927515
-0.77480245 0.3377952 0.81048715
-0.7757535 0.33647197 0.81181681
-0.77666235 0.33526868 0.81303656
-0.77732241 0.3332819 0.8137579
-0.77790076 0.33152631 0.81426775
-0.77856266 0.32953382 0.81499285
-0.77885342 0.32690036 0.81492043
-0.77910435 0.32436275 0.81474137
-0.77931559 0.32190764 0.81445324
-0.77908593 0.31842729 0.81324059
-0.7788167 0.31483138 0.8119427
-0.77850938 0.31111932 0.81055796
-0.77772284 0.30629879 0.80817139
-0.77678651 0.30144662 0.80541158
-0.7755453 0.2965107 0.80189276
-0.77437532 0.29212448 0.79841363
-0.77368015 0.28793743 0.79605937
-0.77323937 0.28381115 0.79431748
-0.77361202 0.28091031 0.79439348
-0.77392942 0.27816093 0.79428506
-0.77429175 0.27535915 0.79430199
-0.77505422 0.2735815 0.79511344
-0.77584159 0.27171594 0.79600996
-0.77666914 0.26968783 0.79706186
-0.77760309 0.26790816 0.79833639
-0.7785337 0.2661311 0.79960799
-0.77943164 0.26450527 0.80073285
-0.78042632 0.26298183 0.80209571
-0.78142059 0.26145768 0.80345964
-0.78240258 0.2600016 0.80475551
-0.78354156 0.25871003 0.80646342
-0.78467858 0.25742203 0.80816668
-0.78581274 0.25613743 0.80986768
-0.78698468 0.25486887 0.81169289
-0.78813922 0.25372308 0.81339329
-0.7893039 0.25246644 0.81521058
-0.79015553 0.25064528 0.81628257
-0.79101068 0.24877226 0.81740904
-0.79186153 0.24695247 0.81847984
-0.79236305 0.2444433 0.81872386
-0.79286861 0.24183398 0.81907457
-0.79338086 0.23939997 0.81923169
-0.79385078 0.23687005 0.81924021
-0.79431683 0.23415971 0.81944633
-0.79478383 0.23144513 0.81965506
-0.79547369 0.22920054 0.82037956
-0.79618609 0.22705758 0.82098144
-0.79688764 0.22483927 0.8216719
-0.79777914 0.22303158 0.82281244
-0.79865861 0.22119391 0.82398969
-0.79953671 0.21936131 0.82516372
-0.80046666 0.21764886 0.82638592
-0.80139571 0.21593624 0.82760853
-0.80232525 0.21422291 0.82883167
-0.80324435 0.21248591 0.83003128
-0.80418175 0.21076524 0.8312059
-0.80510128 0.20902604 0.83240771
-0.80605751 0.20733458 0.83361894
-0.80697203 0.20561749 0.83487684
-0.80795342 0.20393121 0.8360706
-0.80888909 0.20221853 0.83730412
-0.80984992 0.20051092 0.83851999
-0.81076044 0.19879311 0.83977121
-0.81163937 0.19695246 0.84088677
-0.81251884 0.1951111 0.84200299
-0.81339777 0.19327044 0.84311861
-0.81423247 0.19132984 0.84414208
-0.81506717 0.18938917 0.84516561
-0.81596804 0.18743163 0.84617704
-0.81677401 0.18541956 0.84714139
-0.8175807 0.18340749 0.84810519
-0.81838793 0.18139482 0.8490696
-0.81919527 0.17938417 0.85003471
-0.82004082 0.17735517 0.85100138
-0.82088852 0.17532265 0.85197091
-0.82173288 0.17327255 0.85293168
-0.82257962 0.17121619 0.85389322
-0.82338387 0.16918373 0.85485101
-0.8242631 0.16706127 0.8557958
-0.82505751 0.16499656 0.85673124
-0.82589614 0.16289383 0.85767263
-0.82659554 0.16075259 0.85849464
-0.82738298 0.15852606 0.85932803
-0.82812572 0.15634316 0.86015576
-0.82888061 0.15387356 0.86082941
-0.82959306 0.15145308 0.86150432
-0.83035684 0.14897203 0.8621906
-0.83095211 0.14626342 0.86261529
-0.83149934 0.14361256 0.86303127
-0.83210158 0.14091015 0.86347073
-0.83269799 0.1379981 0.86379892
-0.83335721 0.13502377 0.86416143
-0.83390367 0.13215536 0.86447722
-0.8346231 0.1292724 0.8649568
-0.83522546 0.12650186 0.8653816
-0.83589435 0.12366754 0.86584669
-0.83667064 0.121059 0.86653197
-0.83738548 0.11850774 0.86718631
-0.83796668 0.1160866 0.86776197
-0.83866501 0.11371374 0.86848044
-0.83943218 0.11127079 0.86924183
-0.84034407 0.10867786 0.87009484
-0.84103358 0.1060313 0.87068933
-0.84172416 0.10338044 0.87128484
-0.84234315 0.10080534 0.87183404
-0.84263003 0.097230077 0.87158746
-0.84296256 0.093493581 0.87132615
-0.84331977 0.089535832 0.87100619
-0.84267974 0.083034396 0.86849689
-0.84197223 0.076075196 0.86572999
-0.84124434 0.067383528 0.86225033
-0.84039158 0.057473481 0.85815531
-0.83963627 0.046243191 0.85368001
-0.83910948 0.037658691 0.85055399
-0.83926129 0.032844186 0.84973353
-0.83931696 0.028675735 0.84905291
-0.83937287 0.024507999 0.848373
-0.84010345 0.021559238 0.84897923
-0.84083927 0.018612504 0.84959477
-0.84164631 0.015506327 0.85024035
-0.84246355 0.012723744 0.85102344
-0.84343076 0.0096238256 0.8518756
-0.8442601 0.0068451762 0.85267949
-0.84512955 0.0038135052 0.85344249
-0.84593207 0.00095099211 0.85418439
-0.84665447 -0.0017569661 0.85488242
-0.84777671 -0.0042560101 0.85616422
-0.84872401 -0.0064628124 0.8573308
-0.8495723 -0.0085379481 0.85841608
-0.85062528 -0.0097827911 0.86005402
-0.85187495 -0.011290252 0.86185277
-0.85301989 -0.012665987 0.86356056
-0.8543008 -0.014099896 0.86542284
-0.85525817 -0.015128851 0.86700279
-0.85653371 -0.016556442 0.86885929
-0.85757959 -0.018115878 0.87036854
-0.85895693 -0.020092249 0.87217104
-0.86000156 -0.02164948 0.87367862
-0.86124903 -0.023538947 0.87534213
-0.8623836 -0.025284708 0.87690538
-0.86351907 -0.027030349 0.87846828
-0.86439073 -0.028541625 0.87975764
-0.86549413 -0.030348063 0.88125592
-0.86647809 -0.032000959 0.88264495
-0.86742002 -0.034163296 0.883811
-0.86836314 -0.036324918 0.8849771
-0.86954975 -0.038808048 0.88637054
-0.8707664 -0.041681349 0.88768089
-0.87174058 -0.044237435 0.88876665
-0.87284273 -0.046962678 0.88997293
-0.87374109 -0.049256682 0.89104205
-0.87489569 -0.051888406 0.89235282
-0.87579542 -0.054186046 0.89342356
-0.87663913 -0.056142211 0.89452326
-0.87761146 -0.058269203 0.89574635
-0.87871718 -0.060573101 0.89709735
-0.87994975 -0.062597334 0.89871109
-0.88104951 -0.064445138 0.9001956
-0.88201278 -0.066109717 0.90154815
-0.88342893 -0.067729294 0.90354383
-0.88429379 -0.06860733 0.9049983
-0.88571072 -0.070226729 0.90699345
-0.88665754 -0.070881546 0.90862554
-0.88788158 -0.071909487 0.91052943
-0.88881683 -0.0725438 0.91214633
-0.89067924 -0.073667109 0.91491461
-0.89225554 -0.074400842 0.91739762
-0.89383179 -0.075134814 0.91988242
-0.8956368 -0.074280381 0.9231596
-0.89705741 -0.072657466 0.92612123
-0.8984865 -0.070970714 0.9291088
-0.89983624 -0.068319798 0.93226314
-0.9013595 -0.066319287 0.93546546
-0.90264714 -0.064249992 0.938348
-0.90399158 -0.063119352 0.94103307
-0.90563893 -0.062403619 0.94402277
-0.90743846 -0.061896861 0.94716763
-0.9087714 -0.06185919 0.94950938
-0.9100998 -0.061813712 0.95184481
-0.91174287 -0.062206089 0.95450419
-0.91320348 -0.062424719 0.95694947
-0.91449869 -0.06241256 0.95922375
-0.91562563 -0.062164724 0.96132308
-0.9170655 -0.062386751 0.9637354
-0.91850948 -0.062593341 0.96615541
-0.91979486 -0.062535346 0.96842188
-0.92051882 -0.061881661 0.97004479
-0.92171913 -0.061966121 0.97214365
-0.92307806 -0.062299669 0.97440088
-0.92485434 -0.063569486 0.97699696
-0.92580396 -0.063556194 0.97875637
-0.92690527 -0.063810885 0.98065919
-0.92791641 -0.064895153 0.98219717
-0.92892623 -0.065973699 0.98373437
-0.92993498 -0.067046702 0.98527062
-0.93045121 -0.06921953 0.98578662
-0.93130839 -0.071937144 0.98664606
-0.93248659 -0.075269043 0.98780519
-0.93406159 -0.079740942 0.98923314
-0.93567419 -0.084180892 0.99072951
-0.93594098 -0.086288333 0.99090022
-0.93653339 -0.087640584 0.99175394
-0.93693161 -0.088729799 0.99239075
-0.93804359 -0.090945125 0.99376678
-0.9393121 -0.092121542 0.99565661
-0.94076532 -0.093583107 0.99773932
-0.94185138 -0.094473362 0.99943596
-0.94301403 -0.095180511 1.0012958
-0.94417459 -0.095884144 1.003153
-0.94496101 -0.095988929 1.0046175
-0.94570696 -0.096158624 1.0060029
-0.94681925 -0.096929789 1.0077672
-0.94831908 -0.098282874 1.0099456
-0.94963169 -0.10006684 1.011735
-0.95074773 -0.10156471 1.0133097
-0.95166373 -0.10277063 1.0146655
-0.95286715 -0.10481966 1.0162222
-0.95386934 -0.10657763 1.0175598
-0.95466799 -0.10803872 1.0186731
-0.95565951 -0.10982102 1.0199864
-0.95685732 -0.11190581 1.0215271
-0.958058 -0.11399412 1.023072
-0.9588356 -0.11549437 1.0241432
-0.95982146 -0.11729771 1.0254431
-0.96059656 -0.11879379 1.026511
-0.96163321 -0.12048239 1.0279166
-0.96288329 -0.12248409 1.0295594
-0.96413589 -0.12449157 1.0312057
-0.96515119 -0.12624186 1.0325644
-0.96616781 -0.12799412 1.0339229
-0.96674979 -0.12909991 1.0348014
-0.96789408 -0.13137376 1.036216
-0.96860337 -0.13299686 1.0371492
-0.96997088 -0.13560778 1.0388131
-0.97164291 -0.13838243 1.0408916
-0.69368255 0.34381777 0.66616559
-0.69106627 0.34588307 0.66032863
-0.69273728 0.34559935 0.66304284
-0.69525194 0.34441179 0.6674422
-0.69841385 0.34435296 0.6731922
-0.70153987 0.34467506 0.67888749
-0.70515525 0.34500074 0.68559003
-0.70999295 0.34702662 0.69483256
-0.71431899 0.34914756 0.70304912
-0.71817893 0.35142997 0.71032757
-0.72074175 0.35232586 0.71493828
-0.72340935 0.35275289 0.71976388
-0.72562075 0.35363662 0.72365665
-0.72739989 0.35284293 0.72665191
-0.72894096 0.35259104 0.72915649
-0.73063254 0.35198355 0.7319749
-0.73201269 0.35137856 0.73414868
-0.73353922 0.350425 0.73662877
-0.73506176 0.34947935 0.73910373
-0.73648202 0.34865016 0.74136639
-0.73782992 0.34799212 0.74347669
-0.73938453 0.34683576 0.74602985
-0.74074423 0.34558547 0.74817973
-0.74196833 0.34466606 0.75003392
-0.74319237 0.3437466 0.75188988
-0.74441314 0.34221411 0.75375473
-0.74550372 0.34100169 0.75533462
-0.7465955 0.33978862 0.75691462
-0.74769211 0.33858815 0.75850672
-0.74884903 0.33723921 0.76023549
-0.75000548 0.33589587 0.76196468
-0.75161827 0.33586735 0.76463175
-0.7533803 0.33563298 0.76763666
-0.75500834 0.33564711 0.77033705
-0.75742382 0.33717439 0.77469051
-0.76021671 0.33853629 0.77990013
-0.76393455 0.33975485 0.78720003
-0.76737583 0.34047687 0.79395032
-0.77009428 0.3411555 0.79910392
-0.77216935 0.3418833 0.80280763
-0.7735033 0.34119299 0.80495495
-0.77482635 0.34048605 0.80707902
-0.77609378 0.33988523 0.80906641
-0.77692008 0.33829018 0.81013644
-0.77766263 0.336936 0.81098211
-0.7784909 0.33533731 0.81205672
-0.77904475 0.33332038 0.81252974
-0.77956128 0.33141625 0.81289971
-0.78012097 0.32938942 0.81338078
-0.7804234 0.32677361 0.81332701
-0.78065491 0.32436627 0.8130641
-0.78085172 0.3220374 0.81269383
-0.78072143 0.3187536 0.8116672
-0.78056091 0.31537309 0.81057227
-0.7804724 0.31178698 0.80968899
-0.77979445 0.30719027 0.80750865
-0.77908617 0.3025004 0.80526078
-0.77801597 0.29775137 0.80207628
-0.77685362 0.29318008 0.79857713
-0.77601874 0.28880134 0.79585218
-0.77539665 0.28454435 0.79363322
-0.77566946 0.28155494 0.79346079
-0.77593404 0.27867043 0.79322791
-0.77626133 0.27565205 0.79320651
-0.77701437 0.27384204 0.79398459
-0.77778935 0.27194321 0.79484868
-0.77858329 0.26996171 0.7957949
-0.77949572 0.268246 0.79698545
-0.78043604 0.26637924 0.79832649
-0.78135979 0.26459366 0.79958898
-0.78232843 0.26301646 0.80089861
-0.7832855 0.26150894 0.80213976
-0.78425574 0.25993031 0.80345172
-0.78535473 0.25864244 0.80503345
-0.78645396 0.25735527 0.80661583
-0.78755975 0.25600547 0.80826157
-0.78871691 0.25471121 0.81006908
-0.78986245 0.25354022 0.81174994
-0.79101419 0.25225657 0.81354845
-0.79186797 0.25037974 0.81467986
-0.79272056 0.24850643 0.81580782
-0.79357111 0.24668592 0.81687802
-0.79407752 0.24422085 0.81706238
-0.79458487 0.24165159 0.81735939
-0.79509896 0.23912317 0.81760895
-0.79558861 0.23661059 0.8176263
-0.79607022 0.23395735 0.81779861
-0.79654849 0.23125774 0.81802303
-0.79726589 0.22908807 0.81874305
-0.79799557 0.2269485 0.8194229
-0.79871893 0.22476888 0.82015085
-0.79964387 0.22303182 0.82136005
-0.80055499 0.22126597 0.82260716
-0.80146402 0.21950376 0.82385147
-0.80242342 0.21786529 0.82520258
-0.80339754 0.21625262 0.82651848
-0.80439001 0.21466243 0.82780296
-0.80534607 0.21300566 0.8290807
-0.80632311 0.21136564 0.83033031
-0.8072595 0.20969164 0.83163643
-0.80820942 0.20801955 0.8329013
-0.8091352 0.20633656 0.8341881
-0.8101092 0.20467478 0.8354286
-0.81104082 0.20296282 0.83665556
-0.81202739 0.20126081 0.83784515
-0.81293297 0.19954067 0.83909351
-0.81377757 0.19769275 0.84021497
-0.81461936 0.1958468 0.84133399
-0.81552327 0.1940003 0.84242374
-0.81638479 0.19205159 0.84342605
-0.81724882 0.19009864 0.84443176
-0.8181147 0.18814141 0.84543955
-0.81891161 0.1861105 0.84638357
-0.81970811 0.18408036 0.84732705
-0.82050419 0.18204933 0.84827155
-0.82137913 0.17998242 0.84920788
-0.82217634 0.17794389 0.85015082
-0.82301509 0.17588574 0.85109496
-0.82385993 0.17383301 0.85205203
-0.82466352 0.17180061 0.85300684
-0.82546628 0.16976815 0.85396218
-0.82630002 0.16767216 0.85489094
-0.82708812 0.16560334 0.85581517
-0.82792401 0.16349876 0.85674584
-0.82870173 0.16125304 0.8575536
-0.82947755 0.15899658 0.85835832
-0.83025324 0.1567297 0.85915893
-0.83097869 0.1543411 0.85985345
-0.83175546 0.15189356 0.86055785
-0.83243626 0.14955258 0.86125326
-0.83300984 0.14696956 0.86172575
-0.83358306 0.1443873 0.8621977
-0.83421469 0.1417523 0.86269253
-0.83487326 0.13879508 0.86304152
-0.83547944 0.13588268 0.86337626
-0.83608955 0.13296461 0.86371839
-0.83664995 0.13011539 0.86405313
-0.8372122 0.12726402 0.86439252
-0.83791047 0.12428868 0.86480415
-0.83864278 0.12157995 0.86538804
-0.83938015 0.11886424 0.86597705
-0.83991152 0.11633945 0.86645651
-0.84070253 0.11372346 0.86715508
-0.84142554 0.11117023 0.86781681
-0.84229815 0.10846907 0.86856884
-0.8430016 0.10560387 0.86907566
-0.84355819 0.10288322 0.86949623
-0.84418994 0.10008091 0.86996001
-0.84428704 0.096321166 0.8694244
-0.84449965 0.092299938 0.86890125
-0.84477532 0.087872267 0.86827672
-0.84407854 0.080673873 0.86539167
-0.84323931 0.073375344 0.86231756
-0.84245449 0.064202487 0.85852915
-0.84190547 0.054602742 0.8548578
-0.84162128 0.044601858 0.85135645
-0.84135723 0.037995636 0.8493017
-0.8416754 0.03413552 0.84904808
-0.84181643 0.030771673 0.84878951
-0.84200072 0.027219594 0.84850347
-0.84271991 0.024884939 0.8493318
-0.8435092 0.022402525 0.85018289
-0.8444401 0.019599855 0.85107893
-0.84532988 0.016365349 0.851762
-0.84615231 0.013281286 0.85242736
-0.84705317 0.010022044 0.85312426
-0.84770578 0.0068522096 0.85355616
-0.848526 0.0033695698 0.85407948
-0.84928352 6.4313412e-05 0.85459405
-0.85027897 -0.0027202368 0.85560244
-0.85129416 -0.005476892 0.8566488
-0.85213172 -0.0079331994 0.85758483
-0.85324812 -0.0093926191 0.85923558
-0.85435897 -0.010854661 0.86087662
-0.85535562 -0.012188852 0.86241812
-0.85665095 -0.013588488 0.8643108
-0.85750574 -0.01445049 0.86583328
-0.85879505 -0.015843809 0.86771899
-0.85973358 -0.017244637 0.86914974
-0.86123413 -0.019337356 0.87106109
-0.86228335 -0.020873964 0.87258589
-0.86353517 -0.022753954 0.87425256
-0.86455518 -0.024346352 0.87571859
-0.86569005 -0.026081622 0.87728429
-0.86670709 -0.027664185 0.87874722
-0.86772162 -0.029242456 0.88020676
-0.86885524 -0.030970633 0.88177168
-0.86971694 -0.032878935 0.88291621
-0.87082338 -0.035098851 0.88427812
-0.8718068 -0.037162602 0.88553143
-0.87305325 -0.039969981 0.88688791
-0.87405324 -0.042460024 0.88802296
-0.87518179 -0.045119762 0.8892774
-0.87619495 -0.047600091 0.89043605
-0.87734103 -0.050253689 0.89171886
-0.87822765 -0.05257082 0.89276427
-0.87902224 -0.054622352 0.89377064
-0.87994856 -0.056845009 0.89489937
-0.88100946 -0.059243739 0.89615452
-0.8822 -0.061360002 0.89767551
-0.8833918 -0.063479841 0.89919984
-0.88444734 -0.065420747 0.90059555
-0.88585675 -0.067064464 0.90256774
-0.8867029 -0.067966402 0.9040044
-0.88782752 -0.069233179 0.90570462
-0.88890958 -0.07007128 0.90747833
-0.8902756 -0.071286201 0.90952468
-0.89135158 -0.072111547 0.91129065
-0.89305407 -0.073081911 0.91387665
-0.89447391 -0.073637307 0.91619945
-0.89603496 -0.074400485 0.91865349
-0.89768511 -0.073341668 0.9217878
-0.89934027 -0.072244823 0.92493749
-0.90073693 -0.070604146 0.92788982
-0.90220875 -0.068195879 0.93117428
-0.90343529 -0.065728366 0.93412894
-0.9048602 -0.063876331 0.93716568
-0.9062084 -0.062718689 0.93988335
-0.90802193 -0.062189817 0.94305956
-0.9098326 -0.061657488 0.94623351
-0.91100049 -0.061405361 0.94841719
-0.91232276 -0.061362565 0.95075381
-0.91347808 -0.061089158 0.95292044
-0.91491914 -0.061331272 0.95533687
-0.91635865 -0.061568975 0.95774937
-0.91779506 -0.061803281 0.96015954
-0.9190461 -0.061840355 0.96236104
-0.92030048 -0.061851561 0.96457481
-0.92172146 -0.062084258 0.9669596
-0.92257905 -0.061721265 0.9687112
-0.92392349 -0.062093556 0.97094291
-0.92526895 -0.062458813 0.97317576
-0.92688161 -0.063477814 0.97560167
-0.9278217 -0.063469589 0.97736186
-0.92874509 -0.063474357 0.97908986
-0.93013448 -0.06498915 0.98105288
-0.93100119 -0.065737903 0.98248398
-0.93221569 -0.066996574 0.98426872
-0.93239504 -0.068607926 0.98446465
-0.93344361 -0.071559668 0.98552805
-0.93464381 -0.07485646 0.98671466
-0.93620986 -0.07937789 0.9880873
-0.93780857 -0.083878517 0.98951817
-0.93822181 -0.086326659 0.98981589
-0.93859893 -0.087473571 0.99042445
-0.93895042 -0.088651776 0.99098474
-0.93965089 -0.090410173 0.99188572
-0.94130093 -0.092118561 0.99417895
