ply
format ascii 1.0
comment VCGLIB generated
element vertex 1060
property float x
property float y
property float z
property uchar red
property uchar green
property uchar blue
property uchar alpha
element face 0
property list uchar int vertex_indices
end_header
-0.607659 0.325173 0.763298 168 181 172 255 
-0.610413 0.32271 0.757631 155 168 156 255 
-0.612848 0.320468 0.752826 150 161 150 255 
-0.614303 0.318702 0.748818 149 160 147 255 
-0.615469 0.317146 0.745848 151 162 149 255 
-0.616634 0.315592 0.742879 152 163 148 255 
-0.617473 0.314166 0.739914 154 167 157 255 
-0.618965 0.312484 0.736953 181 192 178 255 
-0.622708 0.309936 0.733963 160 171 150 255 
-0.62706 0.307173 0.730972 149 163 145 255 
-0.629512 0.305261 0.729185 155 166 145 255 
-0.630367 0.303956 0.727417 153 164 147 255 
-0.631226 0.302647 0.725649 141 151 134 255 
-0.631869 0.301619 0.726226 126 136 119 255 
-0.63252 0.300587 0.726804 119 130 111 255 
-0.632872 0.299655 0.727388 119 130 111 255 
-0.633558 0.298636 0.728399 117 127 110 255 
-0.635165 0.297288 0.729397 116 127 108 255 
-0.636771 0.295944 0.730395 117 127 110 255 
-0.638054 0.294677 0.730985 120 130 115 255 
-0.641261 0.290966 0.731442 133 144 131 255 
-0.642495 0.289596 0.730709 156 167 154 255 
-0.644313 0.288041 0.729964 160 171 160 255 
-0.646399 0.286367 0.728782 153 164 147 255 
-0.648471 0.284707 0.727596 142 153 140 255 
-0.650819 0.28297 0.726407 144 153 141 255 
-0.652023 0.281607 0.725449 139 148 136 255 
-0.652945 0.280324 0.724496 133 142 130 255 
-0.65387 0.27904 0.723544 126 135 123 255 
-0.654839 0.277824 0.723585 126 136 121 255 
-0.656365 0.276449 0.723617 125 135 120 255 
-0.657888 0.275077 0.723646 121 132 119 255 
-0.659164 0.273835 0.724393 119 130 117 255 
-0.660167 0.272666 0.725145 127 136 124 255 
-0.661176 0.271492 0.725897 114 124 109 255 
-0.662242 0.270414 0.72802 111 122 103 255 
-0.663047 0.269401 0.730171 101 112 93 255 
-0.663861 0.268382 0.732345 99 108 89 255 
-0.664756 0.267488 0.736347 100 109 90 255 
-0.665409 0.266665 0.740575 102 108 90 255 
-0.665067 0.26611 0.745512 104 108 90 255 
-0.663551 0.26596 0.752526 107 111 92 255 
-0.662573 0.265621 0.759093 108 114 96 255 
-0.662868 0.264936 0.76497 108 114 96 255 
-0.664377 0.263867 0.769321 104 112 95 255 
-0.664895 0.263001 0.773825 108 114 96 255 
-0.665172 0.262148 0.778085 104 110 92 255 
-0.664677 0.261305 0.780974 101 107 89 255 
-0.665672 0.260176 0.783824 89 95 78 255 
-0.666674 0.259039 0.786674 92 98 81 255 
-0.668095 0.257695 0.787867 96 102 85 255 
-0.669281 0.256388 0.789066 100 106 88 255 
-0.670708 0.255043 0.79026 99 107 90 255 
-0.671858 0.253654 0.790442 97 107 93 255 
-0.673477 0.2522 0.790612 98 107 96 255 
-0.674863 0.250779 0.790788 100 109 97 255 
-0.676252 0.249364 0.791055 99 109 95 255 
-0.677641 0.247948 0.79132 98 108 92 255 
-0.679031 0.246532 0.791585 102 110 93 255 
-0.680198 0.245136 0.791836 102 107 94 255 
-0.681369 0.243735 0.792086 103 110 98 255 
-0.682762 0.242314 0.79233 118 125 112 255 
-0.684146 0.240871 0.792302 123 132 120 255 
-0.685529 0.239429 0.792276 123 132 120 255 
-0.687125 0.237976 0.792241 122 132 117 255 
-0.688297 0.236544 0.792219 123 132 120 255 
-0.689889 0.235095 0.79218 121 130 118 255 
-0.691479 0.233647 0.792142 120 129 117 255 
-0.693071 0.232217 0.792259 122 131 119 255 
-0.694456 0.23079 0.792385 123 132 120 255 
-0.695438 0.229363 0.792526 124 133 121 255 
-0.696624 0.227922 0.792541 127 136 124 255 
-0.69821 0.226485 0.792539 129 138 126 255 
-0.699399 0.225039 0.792555 127 137 122 255 
-0.700978 0.2236 0.792472 123 133 118 255 
-0.702168 0.222143 0.792406 123 134 119 255 
-0.703934 0.220721 0.792314 122 132 117 255 
-0.705715 0.219348 0.792813 118 128 113 255 
-0.707117 0.217953 0.793331 116 126 111 255 
-0.708335 0.216538 0.793857 114 124 109 255 
-0.70958 0.215162 0.794973 112 122 108 255 
-0.710649 0.21376 0.796115 112 122 106 255 
-0.711727 0.212353 0.797266 113 121 104 255 
-0.713164 0.210987 0.798365 114 122 107 255 
-0.714429 0.209595 0.799491 117 127 112 255 
-0.715697 0.208197 0.800625 118 128 113 255 
-0.71729 0.206823 0.801215 119 129 114 255 
-0.718712 0.205418 0.801838 123 133 118 255 
-0.719968 0.203981 0.802507 122 132 117 255 
-0.721047 0.202474 0.802803 124 133 121 255 
-0.722459 0.201034 0.803009 124 133 121 255 
-0.72403 0.199632 0.803169 124 134 119 255 
-0.725422 0.198161 0.802934 128 138 123 255 
-0.72666 0.196647 0.802742 128 138 123 255 
-0.728054 0.195173 0.802505 127 137 122 255 
-0.729591 0.193729 0.801991 127 137 120 255 
-0.731277 0.19234 0.801443 130 140 125 255 
-0.732806 0.190907 0.80094 131 141 126 255 
-0.734044 0.189381 0.800664 127 136 124 255 
-0.735577 0.187965 0.80032 127 136 126 255 
-0.736675 0.186377 0.800075 128 137 125 255 
-0.738355 0.185035 0.799875 128 137 125 255 
-0.739608 0.183515 0.799774 125 135 120 255 
-0.741416 0.182245 0.799536 123 133 118 255 
-0.742676 0.180737 0.799608 124 134 119 255 
-0.744343 0.179429 0.799572 127 137 122 255 
-0.745737 0.177989 0.799608 130 140 125 255 
-0.747269 0.176632 0.799767 133 143 128 255 
-0.748413 0.175059 0.800039 129 139 124 255 
-0.749563 0.173478 0.80031 137 146 134 255 
-0.750842 0.171959 0.800429 139 148 136 255 
-0.752369 0.170594 0.800471 142 151 139 255 
-0.753531 0.168988 0.800625 145 154 142 255 
-0.755048 0.167609 0.800435 146 156 141 255 
-0.756561 0.166233 0.800243 145 155 140 255 
-0.7583 0.165035 0.79998 147 157 142 255 
-0.759575 0.163492 0.79987 144 154 139 255 
-0.760856 0.161946 0.799759 145 155 140 255 
-0.762249 0.160489 0.799614 143 153 136 255 
-0.763869 0.159247 0.799727 137 147 130 255 
-0.765272 0.157819 0.799916 132 141 122 255 
-0.766675 0.156391 0.800105 127 136 118 255 
-0.767846 0.154794 0.802219 123 132 114 255 
-0.769425 0.153593 0.804108 128 137 118 255 
-0.770809 0.152192 0.806171 131 142 123 255 
-0.772272 0.150929 0.810148 120 131 112 255 
-0.773103 0.148939 0.814925 114 123 103 255 
-0.773259 0.146086 0.820716 112 121 101 255 
-0.774113 0.143921 0.824191 93 102 83 255 
-0.77568 0.142597 0.826731 94 102 85 255 
-0.777332 0.14139 0.829228 95 103 88 255 
-0.778656 0.139695 0.830005 105 114 102 255 
-0.780232 0.138354 0.830676 120 129 117 255 
-0.781806 0.137019 0.831367 128 138 123 255 
-0.78354 0.135947 0.832097 134 144 129 255 
-0.784951 0.134373 0.832883 130 140 123 255 
-0.786439 0.132922 0.833638 120 128 113 255 
-0.787655 0.130985 0.834997 113 121 104 255 
-0.788745 0.128767 0.836388 107 115 98 255 
-0.790273 0.127337 0.837682 106 114 99 255 
-0.791902 0.126105 0.839753 111 119 104 255 
-0.793532 0.124879 0.841834 135 145 130 255 
-0.794895 0.123089 0.84396 131 141 126 255 
-0.796153 0.121006 0.846252 121 129 114 255 
-0.797307 0.118614 0.848564 106 114 99 255 
-0.798666 0.11664 0.850843 103 110 98 255 
-0.800331 0.115461 0.851886 101 108 96 255 
-0.80183 0.113839 0.85298 101 110 98 255 
-0.803432 0.112518 0.854044 133 142 130 255 
-0.80492 0.110936 0.853624 132 141 129 255 
-0.806511 0.109671 0.853192 134 144 129 255 
-0.808091 0.108413 0.85275 135 144 132 255 
-0.809601 0.106888 0.852972 130 139 127 255 
-0.811149 0.105523 0.853154 128 137 125 255 
-0.812573 0.103669 0.853407 124 133 121 255 
-0.814092 0.102065 0.854854 125 134 122 255 
-0.815578 0.100289 0.856364 123 132 120 255 
-0.817108 0.0986783 0.857862 119 129 114 255 
-0.818654 0.0968671 0.861426 120 130 115 255 
-0.82025 0.0952291 0.865083 122 132 115 255 
-0.821833 0.0934252 0.869041 121 129 112 255 
-0.823524 0.0917875 0.875354 118 126 111 255 
-0.825175 0.0893741 0.883719 112 120 103 255 
-0.826776 0.0854059 0.896363 110 118 103 255 
-0.828362 0.0802016 0.91093 102 107 96 255 
-0.830114 0.0768242 0.920916 93 98 85 255 
-0.832044 0.0756457 0.92788 94 101 91 255 
-0.833839 0.0745348 0.930613 93 100 88 255 
-0.835603 0.0730664 0.933613 98 105 93 255 
-0.837346 0.0712115 0.936661 95 102 92 255 
-0.839017 0.0690309 0.938132 94 103 92 255 
-0.840722 0.0672404 0.939582 97 106 95 255 
-0.84242 0.0652421 0.941054 101 108 96 255 
-0.844169 0.0637004 0.943253 102 109 97 255 
-0.845907 0.0615469 0.945532 105 110 97 255 
-0.847663 0.0597979 0.94778 102 110 95 255 
-0.849415 0.0574085 0.949974 106 113 101 255 
-0.851182 0.0552152 0.952137 107 114 102 255 
-0.852971 0.052591 0.954399 110 117 104 255 
-0.854732 0.0503073 0.955709 111 119 104 255 
-0.856455 0.0490829 0.956769 111 119 104 255 
-0.858166 0.0478621 0.95781 111 118 105 255 
-0.859863 0.0466363 0.958652 118 127 117 255 
-0.861587 0.044983 0.959625 124 133 123 255 
-0.863305 0.0433264 0.960568 122 131 121 255 
-0.86513 0.0410858 0.962833 115 124 112 255 
-0.866942 0.0390592 0.965037 110 117 106 255 
-0.868816 0.0365815 0.967486 110 117 106 255 
-0.87068 0.0345937 0.970479 105 114 102 255 
-0.872607 0.0321433 0.973653 107 116 104 255 
-0.874518 0.0299034 0.976695 108 117 105 255 
-0.876467 0.0274101 0.979702 110 117 104 255 
-0.878497 0.0244291 0.982775 113 118 107 255 
-0.880539 0.0214102 0.985693 112 117 106 255 
-0.882538 0.0185529 0.987825 114 119 108 255 
-0.884443 0.0164065 0.989766 112 117 106 255 
-0.886352 0.0142474 0.991676 107 112 101 255 
-0.888202 0.0122848 0.992935 105 112 102 255 
-0.890018 0.0105733 0.994195 107 114 103 255 
-0.891783 0.00910863 0.995409 108 117 105 255 
-0.893611 0.00708795 0.99594 107 116 104 255 
-0.895438 0.0050607 0.996441 109 118 106 255 
-0.897322 0.0027726 0.996989 111 120 108 255 
-0.899024 0.00119746 0.996613 123 132 120 255 
-0.900665 -0.000113696 0.996189 126 135 123 255 
-0.90241 -0.00194609 0.99582 128 137 125 255 
-0.904002 -0.00331724 0.99442 125 134 124 255 
-0.905704 -0.005216 0.993075 126 135 125 255 
-0.907342 -0.00684813 0.991673 124 133 123 255 
-0.909004 -0.00881636 0.989352 125 134 124 255 
-0.910596 -0.0105166 0.986921 139 148 137 255 
-0.911898 -0.011141 0.983955 158 167 161 255 
-0.913138 -0.0118197 0.980015 166 175 163 255 
-0.913988 -0.0111169 0.975418 167 177 162 255 
-0.914869 -0.0106569 0.970861 161 171 158 255 
-0.915969 -0.0109611 0.967072 158 170 162 255 
-0.91737 -0.0123495 0.96386 159 171 161 255 
-0.918853 -0.0140052 0.960818 166 179 164 255 
-0.920496 -0.0162291 0.957957 179 190 180 255 
-0.921971 -0.0178795 0.954948 176 187 173 255 
-0.923361 -0.0192313 0.951922 171 182 168 255 
-0.924458 -0.0197363 0.948184 171 182 168 255 
-0.925365 -0.0196207 0.944485 172 182 167 255 
-0.926517 -0.0203694 0.940962 174 184 175 255 
-0.927556 -0.0208118 0.937256 173 183 176 255 
-0.928761 -0.0218443 0.933553 170 182 170 255 
-0.929953 -0.0228694 0.929808 168 180 172 255 
-0.931362 -0.024439 0.926852 166 179 164 255 
-0.932458 -0.0250939 0.923664 165 178 165 255 
-0.933539 -0.0257311 0.920422 165 176 164 255 
-0.934629 -0.0263088 0.917847 162 172 157 255 
-0.935921 -0.0274912 0.915427 159 169 160 255 
-0.937097 -0.0283494 0.91295 157 167 162 255 
-0.938493 -0.0298068 0.910933 158 168 161 255 
-0.939886 -0.0312586 0.908925 159 169 160 255 
-0.941163 -0.0323835 0.906891 164 175 166 255 
-0.942316 -0.0331779 0.9048 158 169 152 255 
-0.943578 -0.034282 0.902787 157 168 153 255 
-0.944948 -0.0357085 0.900801 158 169 152 255 
-0.946081 -0.0364646 0.898846 158 169 152 255 
-0.947564 -0.0382058 0.896958 156 167 154 255 
-0.948554 -0.0386095 0.895 153 164 147 255 
-0.949913 -0.0399937 0.893253 150 161 150 255 
-0.951266 -0.0413769 0.891496 157 168 153 255 
-0.952746 -0.0430951 0.889775 160 171 160 255 
-0.953969 -0.0441175 0.888148 158 167 161 255 
-0.955049 -0.0447907 0.886498 157 167 152 255 
-0.956253 -0.0457967 0.884862 157 167 152 255 
-0.957512 -0.0466899 0.884668 155 165 154 255 
-0.958897 -0.0479264 0.884481 154 162 155 255 
-0.959998 -0.0484536 0.884263 152 161 147 255 
-0.961728 -0.050261 0.885828 147 156 145 255 
-0.963894 -0.0531378 0.887457 106 114 99 255 
-0.966221 -0.0563911 0.889101 101 111 95 255 
-0.96826 -0.0589655 0.890371 103 111 94 255 
-0.970006 -0.0608317 0.891582 97 105 88 255 
-0.97191 -0.0630642 0.892828 88 96 79 255 
-0.973122 -0.0639918 0.892004 99 109 95 255 
-0.974643 -0.0656451 0.891228 104 114 100 255 
-0.975533 -0.0658197 0.890375 103 113 99 255 
-0.976531 -0.0664146 0.888708 109 119 105 255 
-0.977521 -0.0669973 0.887039 145 155 140 255 
-0.978498 -0.0675684 0.885371 159 169 150 255 
-0.980139 -0.0696155 0.884049 147 156 144 255 
-0.981444 -0.0709115 0.88268 138 147 135 255 
-0.98292 -0.0725827 0.881344 135 146 133 255 
-0.984053 -0.0734876 0.880035 135 146 133 255 
-0.985356 -0.0747627 0.878758 157 168 153 255 
-0.986824 -0.076426 0.877486 170 181 169 255 
-0.987925 -0.0773457 0.875741 170 181 169 255 
-0.989016 -0.0782589 0.873943 169 179 160 255 
-0.989917 -0.0787799 0.872039 172 182 167 255 
-0.990624 -0.078894 0.870133 172 182 167 255 
-0.991503 -0.0793877 0.868271 158 168 151 255 
-0.992368 -0.0798707 0.86639 135 145 130 255 
-0.993639 -0.0810715 0.865552 126 136 121 255 
-0.994906 -0.082267 0.864736 125 135 120 255 
-0.996556 -0.0842664 0.864009 130 141 126 255 
-0.998245 -0.0862062 0.864111 126 137 122 255 
-0.999743 -0.0877421 0.864178 128 138 121 255 
-1.00124 -0.0892832 0.864217 123 133 116 255 
-1.00253 -0.0904092 0.864293 124 134 117 255 
-1.00443 -0.0927691 0.864481 127 137 120 255 
-1.00614 -0.0947248 0.864636 126 136 119 255 
-1.00785 -0.0966798 0.864831 127 138 121 255 
-1.00894 -0.0973859 0.864896 128 138 123 255 
-1.01045 -0.0989276 0.865039 124 134 119 255 
-1.01196 -0.100458 0.865326 123 133 118 255 
-1.01368 -0.102413 0.865667 125 136 121 255 
-1.01498 -0.103519 0.865921 128 139 124 255 
-1.01649 -0.105054 0.866231 128 138 123 255 
-1.01823 -0.107014 0.866613 131 141 126 255 
-1.01996 -0.108982 0.866986 133 143 126 255 
-1.02148 -0.110526 0.867222 136 147 128 255 
-1.023 -0.11207 0.867478 132 143 124 255 
-1.02474 -0.114055 0.867757 129 140 121 255 
-1.02626 -0.115608 0.867952 129 140 121 255 
-1.02754 -0.116723 0.868104 127 136 118 255 
-1.02929 -0.118719 0.868342 120 125 111 255 
-1.03127 -0.121196 0.86826 39 47 32 255 
-1.03325 -0.123681 0.868177 32 41 29 255 
-1.03381 -0.123476 0.867826 64 75 59 255 
-0.574053 0.346381 0.817009 173 190 198 255 
-0.578049 0.343278 0.811194 185 202 196 255 
-0.583969 0.339137 0.80259 197 211 203 255 
-0.5924 0.333584 0.789437 192 203 197 255 
-0.599687 0.328466 0.775357 184 197 186 255 
-0.606304 0.323846 0.76328 177 190 173 255 
-0.609065 0.32139 0.75756 153 166 158 255 
-0.611507 0.319154 0.752748 140 151 138 255 
-0.612967 0.317392 0.748766 147 158 145 255 
-0.613794 0.315956 0.745661 150 161 150 255 
-0.614953 0.314384 0.742484 150 161 150 255 
-0.616111 0.312813 0.739306 155 168 156 255 
-0.617925 0.310997 0.736202 181 192 178 255 
-0.622324 0.308211 0.733065 153 167 148 255 
-0.625718 0.305826 0.729944 150 164 141 255 
-0.627861 0.304045 0.728256 150 161 140 255 
-0.629039 0.302626 0.72658 150 160 140 255 
-0.6299 0.301323 0.724908 130 140 123 255 
-0.630861 0.300193 0.725667 116 126 109 255 
-0.631828 0.299061 0.726425 116 127 108 255 
-0.632175 0.298142 0.727192 118 128 111 255 
-0.632855 0.297125 0.728259 117 127 112 255 
-0.633851 0.295998 0.729322 118 128 111 255 
-0.635155 0.294763 0.730381 116 126 109 255 
-0.636441 0.293492 0.73097 120 130 115 255 
-0.640244 0.289585 0.731453 131 141 130 255 
-0.641183 0.288315 0.730761 149 160 147 255 
-0.643302 0.286672 0.730049 151 160 148 255 
-0.645098 0.285099 0.728906 150 159 149 255 
-0.64747 0.283359 0.72775 141 150 138 255 
-0.649248 0.281805 0.726608 139 148 136 255 
-0.650742 0.28036 0.725697 144 153 141 255 
-0.651664 0.27908 0.724799 143 152 140 255 
-0.652588 0.277797 0.723899 140 149 137 255 
-0.65356 0.276584 0.724022 134 144 129 255 
-0.654812 0.275293 0.724139 130 140 125 255 
-0.656619 0.273855 0.724245 125 134 122 255 
-0.657898 0.272621 0.725093 119 128 116 255 
-0.658631 0.271527 0.725953 122 131 119 255 
-0.659371 0.270423 0.726813 106 116 102 255 
-0.66044 0.26934 0.728939 112 123 104 255 
-0.661512 0.268254 0.731073 103 114 95 255 
-0.662324 0.267229 0.733251 101 110 91 255 
-0.663215 0.266324 0.737181 101 110 91 255 
-0.663859 0.265487 0.741335 100 109 90 255 
-0.663758 0.264847 0.746058 101 107 89 255 
-0.662469 0.264607 0.752897 107 111 92 255 
-0.661217 0.26431 0.759551 117 123 105 255 
-0.661001 0.263726 0.765618 111 117 99 255 
-0.662515 0.262659 0.770013 106 114 97 255 
-0.663281 0.261736 0.774524 104 112 95 255 
-0.663552 0.260876 0.77886 106 112 94 255 
-0.663046 0.260021 0.781808 95 101 84 255 
-0.663796 0.25893 0.784725 91 97 80 255 
-0.6648 0.25779 0.787634 92 98 81 255 
-0.666467 0.256404 0.788797 94 100 83 255 
-0.667652 0.255092 0.789973 98 104 86 255 
-0.669315 0.253709 0.791137 97 105 88 255 
-0.670699 0.252287 0.791285 96 106 92 255 
-0.672316 0.250834 0.791427 98 107 96 255 
-0.673699 0.249413 0.791576 98 109 96 255 
-0.674856 0.248023 0.791843 98 108 94 255 
-0.676016 0.246631 0.792113 99 109 95 255 
-0.677634 0.245192 0.792366 100 110 96 255 
-0.678576 0.243816 0.792667 98 106 91 255 
-0.679971 0.242397 0.792951 99 106 94 255 
-0.681145 0.240993 0.793243 115 122 109 255 
-0.682752 0.239541 0.793273 118 127 115 255 
-0.684137 0.238104 0.79331 123 132 120 255 
-0.685738 0.236657 0.793339 122 131 119 255 
-0.686906 0.235223 0.793319 121 130 118 255 
-0.688081 0.233786 0.793299 121 130 118 255 
-0.689676 0.232338 0.793263 121 130 118 255 
-0.691478 0.230899 0.793316 121 130 118 255 
-0.692863 0.229467 0.793387 121 130 118 255 
-0.693842 0.22803 0.793475 125 134 122 255 
-0.695024 0.226579 0.793433 125 134 122 255 
-0.696609 0.225139 0.793376 127 136 124 255 
-0.698194 0.223702 0.793319 129 139 124 255 
-0.699574 0.222252 0.793189 127 137 122 255 
-0.700761 0.220791 0.793071 122 132 117 255 
-0.702528 0.219367 0.792924 116 126 111 255 
-0.704313 0.218 0.793417 115 125 110 255 
-0.705903 0.216621 0.793916 116 126 111 255 
-0.706931 0.215185 0.794451 113 123 108 255 
-0.707993 0.213796 0.795723 110 120 106 255 
-0.708885 0.212378 0.79704 111 121 105 255 
-0.710151 0.211 0.798333 109 117 100 255 
-0.711421 0.209623 0.799701 116 124 109 255 
-0.712696 0.208243 0.801087 114 124 109 255 
-0.713977 0.206861 0.802489 121 131 116 255 
-0.71558 0.205491 0.803183 122 132 117 255 
-0.717011 0.204093 0.80393 122 132 117 255 
-0.718274 0.202661 0.804748 124 134 119 255 
-0.719517 0.201179 0.804936 128 138 123 255 
-0.720927 0.19973 0.805054 128 137 125 255 
-0.722497 0.19832 0.8051 126 136 121 255 
-0.723884 0.196833 0.804673 127 137 122 255 
-0.725114 0.195302 0.804309 125 135 120 255 
-0.726501 0.193811 0.803876 124 134 119 255 
-0.728188 0.192399 0.803075 125 135 118 255 
-0.729716 0.190946 0.802346 124 134 117 255 
-0.731089 0.189442 0.801667 125 135 118 255 
-0.732471 0.187954 0.801177 125 134 122 255 
-0.734147 0.186582 0.800617 125 134 122 255 
-0.73538 0.185037 0.800166 122 131 119 255 
-0.736914 0.183631 0.799893 125 134 122 255 
-0.738161 0.182101 0.799681 124 134 119 255 
-0.739972 0.180831 0.799352 128 138 123 255 
-0.741226 0.179316 0.799342 124 134 119 255 
-0.742894 0.178006 0.799246 127 137 122 255 
-0.744286 0.176561 0.799208 126 136 121 255 
-0.745814 0.175198 0.799253 126 136 121 255 
-0.746949 0.173611 0.799379 126 136 121 255 
-0.748217 0.172093 0.799475 130 140 125 255 
-0.749487 0.170564 0.799469 132 142 127 255 
-0.75101 0.169196 0.799411 134 143 131 255 
-0.752284 0.167662 0.799403 140 149 137 255 
-0.753798 0.166287 0.79919 140 150 135 255 
-0.755307 0.164914 0.798977 142 152 137 255 
-0.756932 0.163637 0.798743 138 147 135 255 
-0.758317 0.162186 0.798598 138 147 135 255 
-0.759591 0.160641 0.798479 137 146 134 255 
-0.760981 0.159189 0.798334 138 148 133 255 
-0.762382 0.157757 0.798482 129 139 122 255 
-0.763783 0.156327 0.798631 125 135 118 255 
-0.76529 0.154998 0.79875 125 135 118 255 
-0.766552 0.153492 0.800706 123 132 114 255 
-0.768125 0.15229 0.802525 116 126 109 255 
-0.769597 0.150987 0.804399 121 131 114 255 
-0.770961 0.149631 0.808581 119 128 108 255 
-0.771873 0.147748 0.81339 106 115 95 255 
-0.772272 0.145207 0.819077 109 118 98 255 
-0.77285 0.142746 0.823335 99 108 89 255 
-0.774068 0.140994 0.826476 94 103 84 255 
-0.775733 0.139801 0.82918 97 105 88 255 
-0.777147 0.138231 0.83004 104 112 97 255 
-0.778729 0.1369 0.830823 109 119 105 255 
-0.780225 0.135449 0.83164 124 134 119 255 
-0.781966 0.134379 0.832357 136 146 131 255 
-0.783456 0.132931 0.833111 138 148 133 255 
-0.784943 0.131479 0.833856 122 132 117 255 
-0.786153 0.129537 0.835229 117 125 108 255 
-0.787227 0.127304 0.836616 108 114 96 255 
-0.788617 0.125604 0.837964 104 112 97 255 
-0.790254 0.124374 0.840086 111 119 104 255 
-0.791954 0.123288 0.842187 133 141 126 255 
-0.793387 0.121641 0.844375 132 140 123 255 
-0.79457 0.119409 0.846767 119 127 110 255 
-0.79572 0.117011 0.8492 106 111 98 255 
-0.797074 0.115032 0.851567 104 109 98 255 
-0.798746 0.113855 0.852587 100 107 95 255 
-0.800355 0.112534 0.853628 105 114 102 255 
-0.801902 0.111059 0.854672 129 138 127 255 
-0.803445 0.109633 0.854197 130 139 127 255 
-0.804984 0.108211 0.853722 130 139 127 255 
-0.806614 0.107114 0.853205 130 139 127 255 
-0.808069 0.105423 0.853409 132 141 129 255 
-0.809621 0.104061 0.8536 127 136 124 255 
-0.811 0.102037 0.853865 128 137 125 255 
-0.812478 0.100264 0.855429 125 133 117 255 
-0.814011 0.0986634 0.857021 125 133 117 255 
-0.815581 0.0972267 0.858572 121 131 116 255 
-0.817159 0.0955891 0.86218 122 132 117 255 
-0.818754 0.0939574 0.865953 118 128 111 255 
-0.820361 0.0923285 0.869883 114 122 105 255 
-0.822025 0.0905317 0.876563 114 122 105 255 
-0.823625 0.0876551 0.886298 111 119 102 255 
-0.825153 0.0830223 0.900559 108 116 101 255 
-0.826745 0.0782659 0.914308 107 112 101 255 
-0.828486 0.0750228 0.923965 100 105 94 255 
-0.830429 0.0740116 0.930692 100 107 97 255 
-0.832211 0.0727133 0.933421 100 107 97 255 
-0.833992 0.0714214 0.936212 101 108 98 255 
-0.835695 0.0691553 0.93918 102 109 99 255 
-0.837382 0.0671677 0.940674 100 109 97 255 
-0.839078 0.0651733 0.942198 103 112 100 255 
-0.8408 0.0635739 0.94365 99 106 94 255 
-0.842545 0.0618291 0.94589 102 109 97 255 
-0.844287 0.0598738 0.948183 104 111 99 255 
-0.84604 0.0579146 0.950506 104 111 99 255 
-0.847796 0.0555259 0.952827 101 110 98 255 
-0.849565 0.0533305 0.955096 102 111 99 255 
-0.851352 0.0507029 0.95751 105 114 102 255 
-0.853109 0.0486349 0.958928 108 115 102 255 
-0.854858 0.0469891 0.960212 105 112 100 255 
-0.856585 0.0457746 0.961332 115 124 112 255 
-0.8583 0.0445612 0.962349 122 131 121 255 
-0.86002 0.0431333 0.963427 121 130 120 255 
-0.861788 0.0410506 0.964825 116 125 115 255 
-0.863623 0.0388178 0.967352 113 122 110 255 
-0.865473 0.0365753 0.969899 109 118 106 255 
-0.867332 0.03432 0.972456 113 120 109 255 
-0.869273 0.0316367 0.975706 106 115 103 255 
-0.8712 0.0291527 0.978749 107 116 104 255 
-0.873139 0.0266495 0.981709 108 117 105 255 
-0.875109 0.0238686 0.984375 110 117 104 255 
-0.87706 0.0212991 0.986856 113 118 107 255 
-0.879054 0.0184589 0.989242 111 116 105 255 
-0.880939 0.0162853 0.990842 106 111 100 255 
-0.882794 0.0143456 0.992382 106 111 100 255 
-0.884614 0.0126506 0.993893 110 115 104 255 
-0.886415 0.0109167 0.994832 109 116 105 255 
-0.888171 0.00943249 0.995732 109 116 105 255 
-0.889966 0.00769842 0.996662 107 116 104 255 
-0.89183 0.00541085 0.997088 111 120 108 255 
-0.89365 0.00337449 0.997486 116 125 113 255 
-0.895433 0.00159833 0.997884 123 132 120 255 
-0.897233 -0.000491023 0.997649 128 137 125 255 
-0.898937 -0.00205418 0.997387 130 139 127 255 
-0.900691 -0.00387681 0.997153 129 138 126 255 
-0.902244 -0.00495601 0.995991 130 139 127 255 
-0.903893 -0.00657165 0.994848 129 138 127 255 
-0.905607 -0.00844821 0.993762 129 138 127 255 
-0.907342 -0.0106684 0.99176 135 144 132 255 
-0.908946 -0.0123488 0.989631 140 149 137 255 
-0.910416 -0.0134762 0.987329 148 157 146 255 
-0.91176 -0.0143939 0.983909 157 166 152 255 
-0.91294 -0.0147541 0.980144 166 176 163 255 
-0.913942 -0.0145466 0.975989 164 174 165 255 
-0.914828 -0.0140451 0.971495 166 178 164 255 
-0.915999 -0.0146246 0.967561 165 177 165 255 
-0.917388 -0.0160339 0.964005 172 185 168 255 
-0.918851 -0.0177198 0.960549 175 186 174 255 
-0.920316 -0.0193963 0.957143 174 185 175 255 
-0.921525 -0.0201924 0.953573 178 189 171 255 
-0.922709 -0.020988 0.949752 172 183 167 255 
-0.923708 -0.021167 0.94594 168 179 161 255 
-0.925043 -0.0225151 0.942394 176 186 173 255 
-0.926097 -0.0229468 0.938757 170 182 170 255 
-0.927317 -0.0239709 0.935154 169 181 171 255 
-0.928525 -0.0249835 0.93153 166 178 164 255 
-0.929842 -0.0262458 0.928578 166 178 164 255 
-0.930856 -0.0265759 0.92544 165 177 165 255 
-0.932147 -0.027826 0.922374 166 176 163 255 
-0.933251 -0.0283975 0.919804 164 174 165 255 
-0.934652 -0.0298977 0.917421 162 172 167 255 
-0.935728 -0.0304448 0.914832 160 168 159 255 
-0.93724 -0.0322232 0.912839 157 167 152 255 
-0.93853 -0.0333615 0.910719 160 170 159 255 
-0.939699 -0.0341687 0.908574 163 173 166 255 
-0.940972 -0.0352887 0.906465 159 170 161 255 
-0.942009 -0.0357434 0.904313 159 170 161 255 
-0.943378 -0.0371731 0.902285 159 170 161 255 
-0.94475 -0.0385901 0.900329 158 171 153 255 
-0.946115 -0.0400063 0.898363 162 173 158 255 
-0.947114 -0.0404072 0.896359 156 167 154 255 
-0.948353 -0.0414536 0.894583 151 162 149 255 
-0.949709 -0.0428341 0.892825 152 163 148 255 
-0.95106 -0.044212 0.891057 162 173 158 255 
-0.952417 -0.0455683 0.889528 160 170 159 255 
-0.953641 -0.0465736 0.887982 161 171 158 255 
-0.954989 -0.0479205 0.886454 160 170 159 255 
-0.956123 -0.0484507 0.886399 157 167 152 255 
-0.957521 -0.0496756 0.886386 155 163 154 255 
-0.958772 -0.0505436 0.886338 150 159 149 255 
-0.960508 -0.0523482 0.887997 145 152 141 255 
-0.962816 -0.0555881 0.889739 104 112 97 255 
-0.964999 -0.0584892 0.891465 103 111 94 255 
-0.967033 -0.0610772 0.892697 102 110 93 255 
-0.968635 -0.0625857 0.893872 94 102 85 255 
-0.970533 -0.0648294 0.895069 85 93 79 255 
-0.971903 -0.0661265 0.894206 105 113 98 255 
-0.97327 -0.0674205 0.893343 104 114 100 255 
-0.974168 -0.0675933 0.892422 104 114 100 255 
-0.975017 -0.0678124 0.890705 113 122 110 255 
-0.97617 -0.0687657 0.889038 144 153 141 255 
-0.977638 -0.0704666 0.887402 147 156 144 255 
-0.979277 -0.0725333 0.885989 140 149 137 255 
-0.980428 -0.0734595 0.884509 139 150 137 255 
-0.981737 -0.0747599 0.883065 150 161 150 255 
-0.982872 -0.075675 0.881587 158 169 152 255 
-0.98417 -0.0769678 0.880144 163 174 157 255 
-0.985468 -0.0782585 0.878701 168 179 161 255 
-0.986397 -0.078789 0.876855 169 179 160 255 
-0.987667 -0.080095 0.875029 169 179 160 255 
-0.988571 -0.0806194 0.87305 171 181 168 255 
-0.98929 -0.0807216 0.871212 172 181 167 255 
-0.99018 -0.0812073 0.86942 156 165 153 255 
-0.991243 -0.0820799 0.867663 135 144 132 255 
-0.992522 -0.0832794 0.866877 123 132 120 255 
-0.993984 -0.0848763 0.866147 122 132 117 255 
-0.995452 -0.0864734 0.865436 121 131 116 255 
-0.997141 -0.0884187 0.865529 124 134 119 255 
-0.998248 -0.0891495 0.865445 121 131 116 255 
-0.999745 -0.090691 0.865482 121 131 114 255 
-1.00144 -0.0926397 0.865627 120 130 113 255 
-1.00314 -0.0945975 0.865753 122 132 115 255 
-1.00484 -0.0965567 0.865897 123 133 116 255 
-1.00615 -0.0976816 0.865983 121 131 114 255 
-1.00745 -0.0988037 0.866059 123 133 118 255 
-1.00874 -0.099927 0.866126 126 136 121 255 
-1.01025 -0.101459 0.866372 127 137 122 255 
-1.01218 -0.103839 0.866738 124 135 120 255 
-1.01369 -0.10538 0.866975 126 136 121 255 
-1.01563 -0.107773 0.867371 121 131 116 255 
-1.01693 -0.108888 0.867574 126 136 121 255 
-1.01845 -0.110428 0.867851 126 136 121 255 
-1.01974 -0.11154 0.868001 124 134 117 255 
-1.02148 -0.113524 0.86826 125 134 116 255 
-1.02299 -0.115074 0.868455 118 127 107 255 
-1.02428 -0.116186 0.868564 118 127 107 255 
-1.02557 -0.117295 0.868694 114 120 102 255 
-1.02754 -0.119739 0.868957 113 118 105 255 
-1.02974 -0.122666 0.86892 45 53 38 255 
-0.574513 0.342773 0.812503 171 187 210 255 
-0.580487 0.338675 0.804257 198 214 202 255 
-0.588987 0.33318 0.791491 194 205 195 255 
-0.597313 0.327604 0.776468 187 199 192 255 
-0.603962 0.322997 0.76421 181 194 179 255 
-0.607387 0.32022 0.757724 154 167 157 255 
-0.609503 0.318128 0.752979 138 149 136 255 
-0.610963 0.316353 0.748861 141 152 139 255 
-0.612116 0.314762 0.745475 144 153 141 255 
-0.613268 0.313173 0.742087 146 157 144 255 
-0.615079 0.311335 0.738693 152 165 149 255 
-0.617545 0.30927 0.735444 168 181 162 255 
-0.621952 0.306499 0.732167 150 164 141 255 
-0.624701 0.304359 0.728911 146 160 142 255 
-0.626852 0.302593 0.727318 144 155 138 255 
-0.62803 0.301184 0.725739 143 153 136 255 
-0.62921 0.299774 0.72416 129 137 120 255 
-0.630174 0.29866 0.725103 119 127 110 255 
-0.630512 0.297761 0.726054 119 130 111 255 
-0.630863 0.296848 0.727007 118 128 111 255 
-0.63123 0.295938 0.728134 116 126 111 255 
-0.632227 0.29481 0.729252 118 128 111 255 
-0.633841 0.293477 0.73036 118 128 113 255 
-0.635127 0.292206 0.730951 123 133 118 255 
-0.638335 0.288489 0.731479 129 139 128 255 
-0.639276 0.287212 0.730824 145 156 143 255 
-0.641701 0.285487 0.730142 141 150 138 255 
-0.643506 0.283917 0.729034 142 151 139 255 
-0.645595 0.282271 0.727921 138 147 135 255 
-0.647382 0.280719 0.726813 132 143 130 255 
-0.649174 0.279194 0.725951 132 143 130 255 
-0.650383 0.277836 0.725101 132 141 129 255 
-0.651308 0.276555 0.724256 128 137 125 255 
-0.652562 0.275272 0.724453 126 135 123 255 
-0.653816 0.273988 0.724651 126 135 123 255 
-0.655071 0.272704 0.724848 125 134 122 255 
-0.656079 0.271545 0.725804 120 129 117 255 
-0.657091 0.270383 0.726763 105 114 102 255 
-0.657832 0.269281 0.727725 105 115 101 255 
-0.658901 0.268194 0.729845 111 119 102 255 
-0.660242 0.267041 0.73196 105 114 94 255 
-0.661051 0.266011 0.734126 98 109 90 255 
-0.661932 0.265096 0.737953 96 107 88 255 
-0.662306 0.264306 0.74209 100 109 90 255 
-0.662448 0.263582 0.746603 99 108 89 255 
-0.661904 0.263137 0.753038 102 108 90 255 
-0.660115 0.26294 0.7599 106 112 94 255 
-0.65963 0.2624 0.766064 112 118 100 255 
-0.660897 0.261392 0.770636 103 111 94 255 
-0.662164 0.260373 0.775147 103 111 94 255 
-0.66193 0.259601 0.779634 104 110 92 255 
-0.661661 0.258692 0.782637 94 100 83 255 
-0.661912 0.257677 0.785626 91 97 80 255 
-0.662919 0.256534 0.788596 93 99 82 255 
-0.664347 0.25518 0.789742 90 96 79 255 
-0.666017 0.253791 0.790882 94 102 85 255 
-0.667684 0.252407 0.792022 97 105 88 255 
-0.669067 0.25098 0.792143 97 107 93 255 
-0.670688 0.249526 0.792256 97 107 93 255 
-0.672305 0.248075 0.79237 100 110 96 255 
-0.673691 0.246661 0.792626 98 108 94 255 
-0.675079 0.245247 0.792884 99 109 95 255 
-0.676238 0.243852 0.793149 101 111 97 255 
-0.677404 0.242457 0.793482 100 108 93 255 
-0.678574 0.241059 0.793814 99 106 94 255 
-0.67997 0.239643 0.79414 106 113 101 255 
-0.681137 0.238222 0.794251 112 121 109 255 
-0.682527 0.236787 0.794352 117 126 114 255 
-0.683918 0.235353 0.794454 116 125 113 255 
-0.685305 0.233909 0.794428 117 126 116 255 
-0.686902 0.23246 0.794393 121 130 120 255 
-0.688497 0.231016 0.794358 123 132 122 255 
-0.690091 0.229578 0.794366 118 127 115 255 
-0.691475 0.228143 0.794381 121 130 118 255 
-0.692445 0.226697 0.794414 121 130 120 255 
-0.693421 0.225235 0.794325 122 131 121 255 
-0.694807 0.223782 0.794221 128 137 125 255 
-0.696393 0.222338 0.794108 127 137 122 255 
-0.697774 0.22088 0.793924 121 131 116 255 
-0.699157 0.219424 0.793743 119 129 114 255 
-0.701122 0.218015 0.793533 117 127 112 255 
-0.702719 0.216632 0.794031 111 121 107 255 
-0.704311 0.215253 0.794526 112 122 108 255 
-0.705337 0.213812 0.795063 112 122 108 255 
-0.706405 0.212428 0.79648 111 121 107 255 
-0.707483 0.211039 0.797932 110 120 106 255 
-0.708388 0.209618 0.799459 111 119 104 255 
-0.709671 0.208255 0.801095 110 118 103 255 
-0.710784 0.206862 0.802818 115 125 110 255 
-0.712603 0.20558 0.804285 120 129 117 255 
-0.713867 0.204159 0.80524 121 128 115 255 
-0.715476 0.202798 0.80603 123 130 117 255 
-0.716578 0.201341 0.807092 123 130 117 255 
-0.717986 0.199882 0.807119 128 135 123 255 
-0.719393 0.198426 0.807147 124 133 121 255 
-0.720964 0.197007 0.807079 124 133 121 255 
-0.722505 0.195545 0.806367 125 135 120 255 
-0.723724 0.193999 0.805828 126 136 121 255 
-0.725105 0.192495 0.805203 126 136 121 255 
-0.72663 0.191019 0.804229 126 136 121 255 
-0.728153 0.189549 0.803268 124 134 119 255 
-0.729519 0.188028 0.802376 126 137 122 255 
-0.730895 0.186525 0.801702 126 136 121 255 
-0.732719 0.185198 0.800911 125 135 120 255 
-0.73409 0.183702 0.80026 124 134 119 255 
-0.735474 0.182228 0.79991 124 134 119 255 
-0.73657 0.180621 0.799613 123 133 118 255 
-0.738099 0.179211 0.799235 126 136 121 255 
-0.739495 0.177752 0.799118 125 135 120 255 
-0.741307 0.176512 0.798943 125 136 121 255 
-0.742697 0.175059 0.798828 127 137 122 255 
-0.744091 0.17361 0.798774 125 135 120 255 
-0.745218 0.172005 0.798753 128 138 123 255 
-0.746745 0.170632 0.798679 131 140 128 255 
-0.748138 0.169176 0.798533 131 140 128 255 
-0.749784 0.167888 0.798362 130 139 127 255 
-0.751172 0.166435 0.798217 132 141 129 255 
-0.752557 0.164977 0.797996 134 143 131 255 
-0.754065 0.163609 0.797764 131 140 128 255 
-0.755448 0.162153 0.797541 134 143 131 255 
-0.756953 0.160797 0.797388 133 142 130 255 
-0.758223 0.159252 0.797259 133 142 130 255 
-0.759495 0.157703 0.797129 131 141 126 255 
-0.760895 0.156268 0.797238 127 137 122 255 
-0.762404 0.154938 0.797332 125 135 118 255 
-0.763911 0.153611 0.797425 122 132 115 255 
-0.765269 0.1522 0.799245 116 126 109 255 
-0.766735 0.150894 0.801048 123 133 116 255 
-0.768101 0.149483 0.802946 120 130 113 255 
-0.769466 0.148132 0.807239 109 120 101 255 
-0.770557 0.146457 0.811947 102 113 94 255 
-0.771028 0.144022 0.817748 103 112 92 255 
-0.771599 0.141578 0.822432 99 108 89 255 
-0.772635 0.13962 0.826082 93 99 82 255 
-0.774221 0.138331 0.829099 95 101 84 255 
-0.775633 0.136765 0.830065 101 107 89 255 
-0.777226 0.135448 0.830971 109 117 102 255 
-0.778813 0.134133 0.831889 119 129 114 255 
-0.78039 0.13281 0.832619 132 142 127 255 
-0.781961 0.131489 0.833339 132 142 127 255 
-0.783451 0.13004 0.834083 119 129 112 255 
-0.78473 0.128226 0.835447 111 119 102 255 
-0.785792 0.125984 0.83685 111 117 99 255 
-0.787174 0.124283 0.8382 101 109 92 255 
-0.788885 0.123201 0.840361 111 119 102 255 
-0.790519 0.121984 0.842524 132 140 123 255 
-0.791948 0.120338 0.844766 127 133 117 255 
-0.793122 0.118105 0.847258 115 121 105 255 
-0.794193 0.115554 0.849815 106 111 98 255 
-0.795606 0.113725 0.852256 102 107 94 255 
-0.797218 0.1124 0.853266 97 104 92 255 
-0.798828 0.111079 0.854285 103 112 100 255 
-0.800377 0.109605 0.855328 124 133 123 255 
-0.801918 0.108174 0.85478 125 134 124 255 
-0.803456 0.10675 0.854242 125 134 122 255 
-0.805087 0.105651 0.853661 127 136 124 255 
-0.806591 0.104126 0.853853 124 133 121 255 
-0.808143 0.102768 0.854032 125 134 122 255 
-0.809508 0.100736 0.854271 125 134 122 255 
-0.810947 0.0988017 0.855961 125 133 117 255 
-0.812479 0.0972031 0.857638 122 130 115 255 
-0.814051 0.0957703 0.859263 121 129 112 255 
-0.815633 0.0941414 0.863017 113 121 104 255 
-0.817228 0.0925177 0.866938 116 126 109 255 
-0.818785 0.0905623 0.871422 110 119 99 255 
-0.820464 0.0887886 0.878563 109 117 100 255 
-0.82204 0.0856175 0.889702 105 113 96 255 
-0.823512 0.0806233 0.904828 105 113 98 255 
-0.825062 0.0757983 0.918371 109 116 103 255 
-0.826854 0.0732159 0.927016 105 114 102 255 
-0.828761 0.0718227 0.933859 107 116 104 255 
-0.830561 0.0706933 0.936316 107 116 104 255 
-0.832321 0.0691879 0.938973 106 115 103 255 
-0.834035 0.0670932 0.941726 108 117 105 255 
-0.835714 0.0649013 0.943325 110 119 107 255 
-0.837428 0.0631005 0.944882 116 123 112 255 
-0.839147 0.0613004 0.946459 109 116 103 255 
-0.840905 0.0597509 0.948668 107 114 102 255 
-0.842659 0.0579941 0.950952 104 111 99 255 
-0.844409 0.0558266 0.953423 102 111 99 255 
-0.84617 0.0534349 0.955871 103 112 100 255 
-0.847945 0.0510276 0.958341 105 114 102 255 
-0.849731 0.0488158 0.960727 104 113 101 255 
-0.851489 0.0469663 0.96222 107 114 102 255 
-0.853234 0.0455392 0.963505 108 117 105 255 
-0.854987 0.0439009 0.964893 117 126 114 255 
-0.856728 0.042482 0.966198 122 131 121 255 
-0.85848 0.0408508 0.967607 119 128 118 255 
-0.860261 0.0387757 0.969266 115 124 112 255 
-0.862109 0.0365483 0.972034 112 121 109 255 
-0.864008 0.0338573 0.975019 111 120 108 255 
-0.865875 0.0315927 0.977705 113 122 110 255 
-0.867837 0.0286482 0.980917 110 119 107 255 
-0.869808 0.0256637 0.983911 114 121 108 255 
-0.871772 0.0228772 0.986613 114 121 110 255 
-0.8737 0.0202656 0.988693 112 117 106 255 
-0.875534 0.018606 0.990598 107 112 101 255 
-0.877423 0.0164545 0.992534 108 113 102 255 
-0.879263 0.0144923 0.993753 108 113 102 255 
-0.881137 0.012274 0.994971 106 111 100 255 
-0.882914 0.010805 0.99614 107 112 101 255 
-0.884665 0.00929621 0.996727 106 113 101 255 
-0.886373 0.00804734 0.997305 110 117 104 255 
-0.888197 0.00603604 0.997931 106 115 103 255 
-0.890048 0.00373387 0.998237 117 126 114 255 
-0.891911 0.00142935 0.99855 125 134 122 255 
-0.893683 -0.000362217 0.998816 132 141 129 255 
-0.895398 -0.00191194 0.998686 136 145 133 255 
-0.897156 -0.00372702 0.998577 136 145 133 255 
-0.898862 -0.00527376 0.998438 135 146 133 255 
-0.900482 -0.0066008 0.997553 134 145 132 255 
-0.902149 -0.00818968 0.996687 136 147 134 255 
-0.90387 -0.0100491 0.99583 141 150 138 255 
-0.905609 -0.0122555 0.99407 140 149 137 255 
-0.907295 -0.0141854 0.992299 139 148 136 255 
-0.908914 -0.0158376 0.990469 147 156 144 255 
-0.910293 -0.0167185 0.987512 154 163 155 255 
-0.911719 -0.0178761 0.98446 163 172 156 255 
-0.91298 -0.0184743 0.981028 166 176 163 255 
-0.914042 -0.0185502 0.976584 167 179 173 255 
-0.914996 -0.0183201 0.971957 167 179 173 255 
-0.916 -0.0183457 0.96741 170 182 170 255 
-0.917374 -0.0197821 0.963394 176 186 173 255 
-0.918746 -0.0212036 0.95945 177 187 172 255 
-0.919944 -0.0220288 0.955409 178 189 171 255 
-0.921047 -0.0225346 0.951337 173 184 166 255 
-0.92205 -0.0227141 0.947395 172 182 167 255 
-0.923387 -0.0240625 0.943774 172 182 167 255 
-0.924633 -0.0250902 0.940261 170 182 170 255 
-0.925864 -0.0261037 0.936737 169 181 171 255 
-0.927083 -0.0271101 0.933205 168 180 172 255 
-0.928317 -0.0280578 0.930295 168 180 172 255 
-0.929441 -0.0286856 0.927274 166 178 164 255 
-0.930645 -0.0296201 0.92423 163 175 167 255 
-0.931859 -0.0304964 0.921736 160 172 160 255 
-0.933064 -0.031365 0.919232 160 170 159 255 
-0.934357 -0.0325422 0.916747 163 171 165 255 
-0.93587 -0.0343268 0.914712 161 169 158 255 
-0.937381 -0.0361142 0.912679 161 171 158 255 
-0.938561 -0.0369273 0.910457 161 171 158 255 
-0.939618 -0.0374078 0.908145 163 173 166 255 
-0.940664 -0.0378633 0.905917 159 170 161 255 
-0.942041 -0.0392954 0.903855 164 175 166 255 
-0.943296 -0.0403877 0.901798 161 172 159 255 
-0.944667 -0.0418066 0.899788 163 174 157 255 
-0.945673 -0.0422052 0.897728 156 167 154 255 
-0.947036 -0.0435933 0.895948 153 164 147 255 
-0.948272 -0.0446376 0.894152 150 163 151 255 
-0.949502 -0.0456702 0.892366 159 172 161 255 
-0.95074 -0.0466725 0.89089 162 172 157 255 
-0.952096 -0.0480151 0.889433 160 172 160 255 
-0.953582 -0.049703 0.888002 163 173 166 255 
-0.95486 -0.050573 0.888129 159 169 160 255 
-0.956138 -0.0514312 0.888274 162 171 157 255 
-0.957402 -0.0522846 0.8884 151 160 148 255 
-0.959282 -0.0544431 0.89018 134 141 129 255 
-0.961587 -0.0576898 0.89201 107 115 100 255 
-0.963911 -0.0609564 0.89384 105 113 96 255 
-0.96609 -0.0639229 0.89507 103 111 94 255 
-0.967548 -0.0650794 0.896178 97 102 87 255 
-0.969302 -0.0669645 0.897338 87 95 80 255 
-0.970526 -0.0678981 0.896384 103 110 98 255 
-0.972045 -0.0695681 0.895463 104 114 100 255 
-0.97295 -0.0697465 0.894468 106 115 103 255 
-0.973809 -0.0699631 0.892736 117 126 114 255 
-0.97513 -0.0712939 0.891072 138 147 136 255 
-0.976763 -0.0733811 0.889441 140 149 137 255 
-0.978244 -0.0750825 0.887919 140 151 138 255 
-0.979398 -0.076018 0.886343 142 153 140 255 
-0.98038 -0.0765615 0.884753 155 168 156 255 
-0.981682 -0.0778735 0.883143 166 179 164 255 
-0.982982 -0.0791789 0.881543 166 179 164 255 
-0.984108 -0.0800911 0.879928 166 179 164 255 
-0.984867 -0.0802345 0.87796 170 181 169 255 
-0.985784 -0.0807595 0.875967 172 182 167 255 
-0.986866 -0.0816733 0.873948 172 182 167 255 
-0.987776 -0.0821564 0.872245 171 181 168 255 
-0.988853 -0.0830304 0.87057 154 163 155 255 
-0.989739 -0.0835 0.868797 128 137 125 255 
-0.991021 -0.084693 0.868062 116 125 113 255 
-0.99249 -0.0862848 0.867414 120 130 115 255 
-0.994151 -0.0882788 0.866853 117 127 112 255 
-0.995837 -0.0902318 0.866926 111 121 107 255 
-0.997339 -0.0917805 0.866943 117 127 112 255 
-0.998839 -0.0933282 0.866959 115 125 110 255 
-1.00034 -0.0948779 0.867009 114 124 107 255 
-1.00164 -0.0960124 0.86699 115 125 108 255 
-1.00315 -0.0975555 0.867058 118 128 113 255 
-1.00445 -0.0986795 0.867102 118 128 113 255 
-1.00615 -0.100645 0.867281 122 132 117 255 
-1.00745 -0.101768 0.867324 120 129 117 255 
-1.00937 -0.104154 0.867662 121 131 116 255 
-1.0111 -0.106123 0.867943 120 130 115 255 
-1.01282 -0.108095 0.868213 118 128 113 255 
-1.01455 -0.110075 0.868484 118 128 113 255 
-1.01542 -0.110326 0.86851 119 129 112 255 
-1.01694 -0.111872 0.868736 119 129 114 255 
-1.01823 -0.112985 0.868823 117 127 110 255 
-1.02018 -0.115416 0.869098 120 128 111 255 
-1.02147 -0.116533 0.869186 115 123 106 255 
-1.02299 -0.118087 0.869339 115 123 106 255 
-1.0245 -0.119648 0.869462 111 117 99 255 
-1.02648 -0.1221 0.869716 100 108 93 255 
-1.02821 -0.124138 0.869571 30 38 23 255 
-1.02996 -0.126181 0.869438 51 62 47 255 
-0.571273 0.342047 0.813033 165 182 206 255 
-0.578008 0.337734 0.805436 191 206 209 255 
-0.585936 0.332686 0.794502 194 208 196 255 
-0.594366 0.327236 0.780754 190 202 189 255 
-0.601715 0.322332 0.76778 186 198 183 255 
-0.605804 0.31923 0.760373 169 180 170 255 
-0.608251 0.31698 0.755219 146 157 144 255 
-0.60871 0.315605 0.751286 142 151 139 255 
-0.610179 0.313839 0.747305 139 150 137 255 
-0.611313 0.312211 0.743425 143 154 141 255 
-0.613445 0.310208 0.739483 159 172 161 255 
-0.616563 0.307881 0.735853 170 184 170 255 
-0.621301 0.304986 0.732229 153 167 148 255 
-0.623722 0.30296 0.728763 142 155 140 255 
-0.625874 0.301197 0.727088 141 152 135 255 
-0.627049 0.299783 0.72543 135 145 128 255 
-0.628543 0.298259 0.723766 129 140 121 255 
-0.629182 0.297255 0.724697 121 132 113 255 
-0.629512 0.296349 0.72563 116 127 108 255 
-0.629537 0.295538 0.726571 118 128 111 255 
-0.629902 0.294625 0.727755 115 125 110 255 
-0.631211 0.293399 0.728923 114 124 109 255 
-0.632519 0.292171 0.730093 118 128 113 255 
-0.633815 0.29092 0.730931 123 132 120 255 
-0.637353 0.287169 0.732297 127 137 126 255 
-0.637705 0.286097 0.732002 129 140 127 255 
-0.639855 0.284489 0.731664 137 148 135 255 
-0.641673 0.282931 0.730698 134 143 132 255 
-0.644072 0.281213 0.729711 129 138 127 255 
-0.645578 0.279756 0.728749 129 140 127 255 
-0.647668 0.278151 0.72789 125 134 122 255 
-0.648591 0.276869 0.727067 128 137 125 255 
-0.650093 0.275432 0.726225 122 131 119 255 
-0.651346 0.274145 0.726384 116 125 113 255 
-0.652314 0.27293 0.726547 117 126 114 255 
-0.65385 0.271571 0.726695 121 130 118 255 
-0.654578 0.270481 0.727692 123 132 120 255 
-0.655591 0.269317 0.728682 106 115 103 255 
-0.656058 0.268278 0.729696 114 124 109 255 
-0.65713 0.267188 0.731859 112 120 103 255 
-0.658477 0.266033 0.73401 104 112 95 255 
-0.659555 0.264939 0.736204 99 107 90 255 
-0.660434 0.264017 0.740009 95 105 87 255 
-0.6608 0.263215 0.744108 94 104 86 255 
-0.660931 0.262475 0.748537 97 106 87 255 
-0.660107 0.262053 0.754871 101 107 89 255 
-0.658798 0.261695 0.761233 105 111 93 255 
-0.658285 0.261118 0.767103 105 111 93 255 
-0.659804 0.260058 0.77161 104 112 95 255 
-0.661069 0.259043 0.776152 101 110 91 255 
-0.660566 0.258303 0.78069 100 106 88 255 
-0.660285 0.257381 0.78371 88 94 77 255 
-0.660527 0.256359 0.786715 91 97 80 255 
-0.661777 0.255177 0.789692 94 100 83 255 
-0.662957 0.253853 0.790785 95 100 85 255 
-0.664869 0.252431 0.791855 93 101 84 255 
-0.666291 0.251076 0.792942 98 106 89 255 
-0.667915 0.249621 0.793054 95 105 87 255 
-0.66906 0.24822 0.793182 98 108 94 255 
-0.670444 0.246793 0.793301 98 108 94 255 
-0.671835 0.245376 0.793572 96 106 92 255 
-0.673227 0.243959 0.79384 98 108 94 255 
-0.674388 0.242558 0.794117 101 111 97 255 
-0.675784 0.241143 0.794436 101 108 96 255 
-0.676954 0.23974 0.79476 97 104 92 255 
-0.678351 0.238322 0.795079 105 112 100 255 
-0.679519 0.236898 0.795211 109 118 106 255 
-0.68069 0.235471 0.795344 115 124 112 255 
-0.682304 0.234028 0.795461 115 124 112 255 
-0.683909 0.232579 0.795434 117 126 116 255 
-0.685295 0.231135 0.795415 117 126 116 255 
-0.686895 0.229692 0.795388 121 130 118 255 
-0.688278 0.228248 0.795355 117 128 115 255 
-0.689453 0.2268 0.795332 117 128 115 255 
-0.690426 0.225341 0.795316 120 130 119 255 
-0.692017 0.223891 0.795149 125 134 124 255 
-0.693401 0.222434 0.794989 128 137 125 255 
-0.695189 0.221 0.79481 125 134 122 255 
-0.696368 0.219531 0.794652 125 134 122 255 
-0.698147 0.218107 0.794466 122 132 117 255 
-0.699722 0.216672 0.794291 115 125 110 255 
-0.701327 0.215303 0.794941 114 124 109 255 
-0.702736 0.213916 0.795602 113 123 108 255 
-0.703766 0.212482 0.79631 110 120 106 255 
-0.70466 0.211098 0.798159 107 117 103 255 
-0.705755 0.209732 0.800034 108 118 104 255 
-0.706859 0.208362 0.80196 108 116 101 255 
-0.708341 0.207057 0.803995 110 118 103 255 
-0.709468 0.205695 0.806197 115 123 108 255 
-0.710956 0.204388 0.808253 116 125 113 255 
-0.712233 0.202981 0.809491 120 127 114 255 
-0.713516 0.201572 0.810737 116 123 110 255 
-0.714802 0.200159 0.811989 118 125 112 255 
-0.716048 0.198659 0.812128 116 123 110 255 
-0.717629 0.197233 0.812063 117 125 110 255 
-0.719535 0.195892 0.811792 119 129 114 255 
-0.720912 0.194379 0.811064 121 131 116 255 
-0.722292 0.192866 0.810339 120 130 115 255 
-0.723828 0.191399 0.809519 121 131 116 255 
-0.725348 0.189914 0.808371 124 134 119 255 
-0.72671 0.188379 0.807315 125 135 120 255 
-0.727919 0.18679 0.806337 126 136 121 255 
-0.729291 0.18527 0.805485 122 131 119 255 
-0.731114 0.183926 0.80443 123 133 118 255 
-0.732779 0.182535 0.803467 127 136 124 255 
-0.734158 0.181054 0.803029 123 132 120 255 
-0.735249 0.179442 0.802704 125 134 122 255 
-0.73649 0.177889 0.802315 126 135 123 255 
-0.737886 0.176421 0.802123 123 134 121 255 
-0.739701 0.175169 0.801776 123 134 119 255 
-0.741229 0.173781 0.801537 123 134 119 255 
-0.742482 0.172241 0.801351 128 138 123 255 
-0.743602 0.170618 0.80121 127 137 122 255 
-0.745128 0.169229 0.800927 127 136 124 255 
-0.746643 0.167833 0.80049 130 139 127 255 
-0.748284 0.166525 0.800021 131 140 128 255 
-0.749665 0.165053 0.799637 130 139 127 255 
-0.75092 0.163489 0.799249 133 142 130 255 
-0.752301 0.162012 0.798825 132 141 129 255 
-0.753802 0.160627 0.798376 131 140 128 255 
-0.755427 0.159354 0.798041 131 140 129 255 
-0.756573 0.157698 0.797799 131 140 128 255 
-0.757841 0.156132 0.797528 126 135 123 255 
-0.759356 0.154794 0.797579 124 134 119 255 
-0.760981 0.153563 0.797612 123 133 116 255 
-0.762488 0.152236 0.797662 117 127 110 255 
-0.763844 0.150826 0.799529 118 128 111 255 
-0.765208 0.149417 0.80145 120 130 113 255 
-0.766577 0.148008 0.803421 119 129 112 255 
-0.767746 0.146442 0.808004 109 120 101 255 
-0.76903 0.144976 0.812565 103 114 95 255 
-0.769575 0.14263 0.818283 99 108 89 255 
-0.770212 0.140275 0.82284 97 106 87 255 
-0.771148 0.138194 0.826603 93 102 83 255 
-0.772733 0.136905 0.82961 93 102 83 255 
-0.774238 0.135467 0.830603 99 105 87 255 
-0.775831 0.134158 0.831582 103 108 95 255 
-0.777336 0.132725 0.832595 111 118 105 255 
-0.778828 0.131271 0.83336 132 141 129 255 
-0.780321 0.12982 0.834135 132 142 127 255 
-0.781898 0.128506 0.834906 112 120 105 255 
-0.783169 0.12668 0.836243 107 113 95 255 
-0.784299 0.124566 0.837628 102 108 90 255 
-0.785678 0.122859 0.838969 103 109 91 255 
-0.787541 0.122068 0.841058 105 113 98 255 
-0.789172 0.120854 0.843178 132 140 123 255 
-0.79066 0.119353 0.845357 124 130 114 255 
-0.791687 0.116826 0.848038 110 116 98 255 
