ply
format ascii 1.0
comment PCL generated
element vertex 1415
property float x
property float y
property float z
element camera 0
property float view_px
property float view_py
property float view_pz
property float x_axisx
property float x_axisy
property float x_axisz
property float y_axisx
property float y_axisy
property float y_axisz
property float z_axisx
property float z_axisy
property float z_axisz
property float focal
property float scalex
property float scaley
property float centerx
property float centery
property int viewportx
property int viewporty
property float k1
property float k2
end_header
0.13438688 0.26541945 0.69157875
0.28123116 0.27368832 0.71010321
0.19317032 0.04366352 0.69772053
0.067547023 0.23060685 0.67666167
0.30672395 -0.11233383 0.84784973
0.079271138 -0.30504063 0.93735433
0.26437306 0.17137159 0.62780005
0.19550195 0.27007532 0.68901747
0.33772784 -0.18161616 0.90774715
0.13676745 0.02419926 0.71110249
0.33891684 -0.16944985 0.91752332
0.061169684 0.23190214 0.68458402
0.069303468 0.23275977 0.67358005
0.10609917 0.26604688 0.69527233
0.13139975 -0.070324957 0.79104716
0.30798119 0.06342639 0.76735872
0.19823767 0.27000844 0.68658167
0.079259783 0.24997501 0.66209453
0.41712636 -0.20227727 0.91013849
0.032706246 0.20341964 0.73331946
0.11668027 0.22448799 0.64275545
0.20895553 0.071965769 0.69521981
0.26717347 0.27030241 0.70695317
0.37787122 -0.22039463 0.88547236
0.19234936 0.26532584 0.68735015
0.20272516 0.25420052 0.66738284
0.35232997 -0.18648033 0.91811508
0.1487101 0.27257353 0.69456273
0.13161282 -0.10244446 0.86887378
0.0040600039 -0.10757197 0.8993482
0.31136078 -0.037687063 0.82709277
0.39919227 0.099767804 0.77190548
0.16595966 0.26764455 0.68376392
0.14575468 0.24522677 0.66799521
0.20299001 0.022083651 0.70107746
0.14532411 0.26586497 0.68632174
0.18172951 0.26157346 0.67073476
0.18085545 0.2585173 0.66750765
0.32562155 -0.31598994 0.83130801
0.41989261 -0.17276329 0.92228132
0.31637126 0.22395238 0.6917004
0.27995574 0.23907995 0.67280632
0.18711673 0.26178029 0.67218417
0.18687089 0.25870314 0.66863763
0.27505565 0.24419299 0.67356706
0.23645717 0.24092025 0.67311746
0.23403268 0.2621837 0.68951613
0.043168597 0.13728897 0.82047164
0.19536458 0.15838018 0.63407052
0.097440869 0.23948896 0.65182585
0.36898011 -0.22911614 0.87033796
0.2487321 0.27121887 0.70489013
0.029929468 0.19784191 0.75147414
0.12045002 -0.087150007 0.93065721
0.19778578 0.16840509 0.62235677
0.032456301 0.13934635 0.80903715
0.10147966 0.23738255 0.64937246
0.3082906 0.05844203 0.7663092
0.02284693 0.1703545 0.77067989
0.21220393 0.070092499 0.69599199
0.059506774 0.23797242 0.69383341
0.10232589 0.25662526 0.67573184
0.0600571 0.22764875 0.68362212
0.069266148 0.22794884 0.67359179
0.026131732 0.17826922 0.76315123
0.2516939 0.26650289 0.69686627
0.10589204 -0.36546856 0.85054702
0.15696557 -0.32293972 0.79287237
0.10357646 0.10591871 0.70797116
0.20615688 0.1460416 0.66081005
0.32688588 0.23927602 0.70256954
0.032396704 -0.14068741 0.84081697
0.032069862 -0.14384659 0.83577043
0.031655908 -0.14837065 0.82961565
0.030616514 -0.1515699 0.82441729
0.030243589 -0.17336422 0.80412942
0.033053927 -0.1781799 0.80060744
0.073205054 0.11622067 0.7488091
0.13236211 0.10529122 0.68611139
0.052089334 0.19015095 0.68282491
0.32542312 0.24542473 0.69842589
0.13106962 0.26058361 0.68786877
0.14866501 0.27125138 0.69454843
0.39449805 0.096698031 0.7707786
0.28523117 0.2689518 0.71205169
0.30044919 0.26111862 0.70841497
0.16065104 0.26144594 0.67625165
0.35680598 0.0057521211 0.8496747
0.29098421 0.27238795 0.71279037
0.12355901 0.27638036 0.70837867
0.18241446 0.018386515 0.70864218
0.080832571 0.022763619 0.8058427
0.12906644 0.28256139 0.71762574
0.27107728 0.18602441 0.63066578
0.30406737 0.25700614 0.7010836
0.3155129 0.24923266 0.70057243
0.27583015 0.23590294 0.66465175
0.084617272 0.16559964 0.69085175
0.18827492 0.042615313 0.70079941
0.13237537 0.28240794 0.72137189
0.051941238 0.23662522 0.69357371
0.081422225 0.23753303 0.66498095
0.10920003 -0.34149089 0.84131914
0.21350461 0.15357932 0.62424976
0.090679772 0.24675412 0.66528362
0.036298275 -0.22451022 0.85845399
0.39034581 0.086089462 0.8172977
0.21711496 -0.077305645 0.80746377
0.27776837 -0.12680081 0.8300041
0.27630877 -0.18747215 0.84690702
0.24621254 0.11138065 0.6988731
0.28521419 -0.17730337 0.850802
0.047588736 0.23001222 0.68555766
0.072616391 0.22776076 0.66646773
0.23490395 -0.099797919 0.80696613
0.26898378 -0.14903525 0.83697718
0.2559548 -0.16638042 0.84944153
0.26280934 0.26600587 0.69731456
0.051298801 0.13260601 0.82756287
0.21192478 0.12727875 0.67854488
0.3819533 -0.14638427 0.9554798
0.077261895 0.23682918 0.66721064
0.091616236 0.25092119 0.6655314
0.26046324 0.26777101 0.70118558
0.26845783 -0.2576116 0.82321215
0.046516337 0.14075689 0.80176532
0.18693054 0.13847977 0.67402399
0.29247856 0.24477217 0.68808812
0.27764714 0.1809874 0.63591236
0.27059305 0.17642388 0.63600683
0.21060951 0.14028479 0.65226501
0.21335527 0.13953021 0.64917761
0.16948289 -0.36829504 0.79948145
0.11380137 -0.26121289 0.80170476
0.2689355 0.10148397 0.71842217
0.020832874 -0.17232685 0.82811463
0.38649452 -0.19693027 0.92576367
0.27011609 -0.26687193 0.81545538
0.29118037 0.2150311 0.65794742
0.12229332 0.27644998 0.70593899
0.04860983 0.18312328 0.68879938
0.13620748 0.27553788 0.70938379
0.30137557 -0.067788303 0.82388896
0.17243612 -0.15871076 0.84285939
0.1953667 -0.18405433 0.84146273
0.10622114 0.0042542424 0.7532866
0.079708047 0.18272415 0.64359915
0.27186626 0.20073693 0.64450604
0.13596761 0.2175426 0.63976753
0.061631829 0.17067181 0.66109872
0.13632788 0.25601703 0.68357927
0.2176825 0.021652509 0.70321161
0.058856923 0.17825659 0.66346258
0.14242353 0.26921475 0.69252145
0.16031021 0.26314369 0.67661804
0.14082353 0.21083134 0.63455236
0.16202079 0.26269644 0.67538637
0.23567922 0.20853512 0.65502781
0.27716917 0.17752931 0.64487714
0.38668746 -0.21676673 0.89736784
0.1661097 0.259698 0.67254311
0.23607247 0.26086199 0.68586171
0.19431239 0.057601277 0.6979273
0.24275592 0.26636428 0.69023657
0.40619767 -0.22729598 0.89382374
0.24519567 0.26610583 0.69320184
0.24383824 0.26614243 0.69409591
0.040726654 -0.1959217 0.80373847
0.24564479 0.26319703 0.69067729
0.24635823 0.24148138 0.67309898
0.24705593 0.26118341 0.6872865
0.063220702 -0.16795005 0.78673232
0.076213337 -0.28620821 0.91972107
0.1360434 -0.0002942495 0.7196359
0.038809285 0.13591446 0.83976859
0.22412136 0.1344424 0.67164981
0.023941157 0.16855769 0.76647037
0.15215702 0.15842526 0.64933729
0.28081614 0.20546158 0.65108693
0.36692506 -0.355299 0.85937083
0.25660807 0.26200888 0.6919468
0.25626194 0.24141876 0.67162645
0.048740119 0.22992772 0.68972719
0.076165639 0.22916178 0.66479969
0.37273055 -0.2257089 0.87154895
0.25892735 0.26483384 0.69303238
0.02627757 0.20318286 0.73679978
0.20419571 0.067509443 0.69390112
0.050745361 0.23356831 0.68801135
0.077016681 0.23265928 0.66616076
0.18382137 0.086220503 0.69014537
0.20034011 0.11290155 0.680834
0.1060718 0.25366405 0.67515057
0.028191453 0.18754588 0.75310373
0.19720559 0.15187056 0.63681215
0.1988083 0.14847805 0.64351833
0.129758 -0.026016343 0.75393671
0.27697867 -0.29758391 0.82240981
0.10363468 -0.2686564 0.81260896
0.10052332 -0.26622227 0.81403613
0.086218365 -0.2493197 0.81318682
0.20089182 0.10801715 0.67884791
0.19645536 0.11139961 0.67893237
0.16153948 0.14708285 0.6752947
0.12183789 0.013640041 0.70227224
0.19649415 0.16427669 0.62408626
0.096827015 0.25182369 0.6660369
0.23091348 0.23622954 0.66699564
0.19969724 0.16950265 0.62272269
0.030198619 0.13918088 0.8125689
0.2034892 0.16975607 0.61649746
0.073206387 0.087321579 0.80190104
0.2025125 0.17210008 0.61979699
0.30561018 -0.14334908 0.87703115
0.30757821 -0.14967194 0.8695364
0.38078946 -0.17903718 0.9310959
0.32359833 0.10776886 0.77120245
0.20486557 0.17582263 0.6239168
0.14234267 0.023341972 0.7139371
0.26629865 0.26677987 0.70160997
0.3850311 -0.21873505 0.88588572
0.32187396 0.096892893 0.78243548
0.12173499 0.23616891 0.65191549
0.085313104 0.16558461 0.69004965
0.30106336 0.26927131 0.7176044
0.033506982 0.21892378 0.71307218
0.29584575 0.22026412 0.66867727
0.060643129 -0.14499235 0.85128874
0.016990751 -0.1710923 0.83587933
0.12789516 0.098882034 0.6933369
0.046758939 0.18805496 0.69207907
0.28336436 -0.0053930692 0.76056671
0.16383678 0.083415926 0.71485656
0.32179755 0.2488862 0.7039904
0.39690453 0.098110378 0.76593941
0.14001358 0.2460572 0.6681574
0.14111035 0.26418346 0.68688178
0.15241115 -0.3171238 0.79619098
0.1459372 0.19961375 0.62718356
0.17291568 0.16632415 0.64488107
0.038655173 -0.18366094 0.78609127
0.23859645 -0.046128664 0.76446408
0.057572752 0.13204342 0.79319394
0.2980535 0.24103971 0.68818605
0.20274794 0.023391217 0.70001876
0.12874092 0.26636714 0.69474703
0.014153443 0.17856982 0.79200691
0.055019714 0.13464612 0.7984491
0.16624297 0.11685385 0.67984617
0.2269858 -0.053706426 0.76470542
0.036171027 0.1924853 0.71784592
0.22445236 0.13436726 0.64497507
0.30168235 0.23460118 0.68041158
0.27989674 0.18564263 0.6465292
0.055490594 -0.14511611 0.84827089
0.20109439 -0.34385362 0.80389738
0.15109242 -0.089360699 0.84689432
0.018167719 -0.16308416 0.82627624
0.071979411 -0.22298133 0.78069437
0.39323652 0.10230897 0.77212983
0.14850664 0.18811353 0.61918604
0.14739159 -0.31768408 0.79407281
0.27874249 -0.24536498 0.83148724
0.015395934 0.16769883 0.78284669
0.15692906 0.26002616 0.67752063
0.18211685 0.25640821 0.66702145
0.39402002 0.089939192 0.8196519
0.19864498 0.25584421 0.66705203
0.099472068 -0.010564316 0.80310762
0.35026735 -0.18050459 0.91990441
0.26014715 0.26084846 0.69075036
0.30630785 -0.31336182 0.82880151
0.26136345 0.24124049 0.67202336
0.087845266 0.08255288 0.76442498
0.14317875 0.0796763 0.71266812
0.087834999 0.12096076 0.72402728
0.10408157 0.12014462 0.70759982
0.016879857 0.14701274 0.79633981
0.012420861 0.14914334 0.79087311
0.13082802 0.18548402 0.62613642
0.025330331 -0.11900495 0.87118977
0.13126636 0.12009092 0.68815315
0.32055575 0.22895542 0.69387394
0.11849639 0.27355832 0.70107025
0.10587505 0.020552499 0.7653681
0.36892217 0.090812832 0.79366392
0.17515208 0.088753238 0.69202191
0.36533034 -0.34024343 0.85535407
0.35718435 0.093278468 0.77604222
0.12467491 0.2737177 0.70376146
0.28609878 0.24170683 0.67746025
0.3044433 0.048319008 0.75843728
0.13070348 -0.074084133 0.81194091
0.041808013 -0.15870132 0.80397689
0.16397856 0.094235897 0.68608671
0.11381663 -0.24137573 0.81249791
0.11637235 0.26709038 0.70044571
0.35780317 0.17071782 0.69967568
0.28651804 0.25365445 0.69256401
0.2438731 0.2084848 0.64875925
0.19937716 0.05302158 0.69397545
0.069265157 0.11650428 0.75820428
0.13764824 0.26974988 0.69722432
0.11768638 0.19833688 0.64082611
0.13284421 0.23051879 0.64729339
0.15522805 0.25969678 0.68048364
-0.0071173608 -0.12808946 0.88396853
0.11477916 -0.21738423 0.85207528
0.13031113 0.25033075 0.66934347
0.14037736 0.26600847 0.69122851
0.15158059 0.26099074 0.67875093
0.23475274 0.20702907 0.65140015
0.12206745 0.24088342 0.65303499
0.34503704 0.21292274 0.69498748
0.16752347 0.25823554 0.67026758
0.19728984 0.21342844 0.64821702
0.17559928 0.25425103 0.66756576
0.18685929 0.25333589 0.66533244
0.30367434 0.1252618 0.66164088
0.20110969 0.25323001 0.66682631
0.19337876 0.24503925 0.66175121
0.20746447 0.25441664 0.6691848
0.28684372 -0.30242959 0.82862723
0.29228163 -0.30255651 0.83199692
0.31955743 -0.27368429 0.82744408
0.3276962 -0.26594195 0.8313396
0.20338827 -0.2556904 0.80666685
0.29160482 0.06520772 0.73663461
0.26758891 0.13548197 0.67651105
0.0093816817 0.18334876 0.80047238
0.10129869 -0.020471545 0.82382929
0.099886537 -0.16232173 0.81871098
0.1023151 -0.16441229 0.82410216
0.14334057 -0.056495108 0.75055569
0.2112245 0.1782572 0.61388564
0.28804272 0.13413157 0.65902579
0.21136484 0.21654591 0.65456772
0.091088504 -0.16274866 0.80916351
0.24646716 0.25667837 0.68177074
0.18388951 -0.24738702 0.81344867
0.10591992 -0.17014928 0.81667477
0.10476317 -0.30152956 0.87124449
0.32289058 -0.27833387 0.82559794
0.27643913 0.052186824 0.7218222
0.12907298 0.14646424 0.6829235
0.262164 0.03493439 0.72052109
0.2261229 0.18459998 0.62813872
0.26600319 0.050062563 0.7128343
0.20161837 0.22363618 0.65303987
0.25168359 0.2571483 0.68154979
0.14265178 -0.2922931 0.81241059
0.2017522 0.21839775 0.65364063
0.35724235 -0.17711331 0.92370182
0.063093804 -0.16877747 0.77614325
0.24554351 -0.33635959 0.8138507
0.19768994 -0.2938033 0.80129313
0.14237879 0.15052618 0.67740744
0.2689569 0.14460126 0.65482551
0.24045955 0.14755444 0.62640625
0.39336538 -0.17004305 0.94189066
0.25769734 0.25589442 0.68220562
0.27620977 0.14686646 0.65935135
0.27961504 0.14798787 0.66601562
0.28543735 -0.30017173 0.82581574
0.31797802 -0.27376553 0.82513905
0.17043115 -0.25393766 0.80451089
0.17395793 -0.25251761 0.80872273
0.10107227 -0.19627148 0.78694296
0.15668529 0.0086673703 0.71950871
0.096518986 0.012306942 0.78069413
0.10053027 -0.020520458 0.81839317
0.10027669 -0.16058299 0.82314587
0.10196283 -0.16612218 0.81845903
0.10343274 -0.16860828 0.81037629
0.063482776 -0.17398593 0.76699841
0.25010353 0.14532213 0.62900925
0.14252836 0.14883022 0.68015313
0.20581739 0.21804526 0.65545934
0.35758537 -0.18045051 0.92336887
0.092846803 -0.16510178 0.80562967
0.32750612 0.20042095 0.67305791
0.25542712 0.25697929 0.68536049
0.25898021 0.26092851 0.68703854
0.3275727 0.17181037 0.67277747
0.20964263 0.25142828 0.66735828
0.22205509 0.24264544 0.66599083
0.26542729 0.26068041 0.69204187
0.26669478 0.24068229 0.67166597
0.25557011 0.24944882 0.67417645
0.096951373 0.2486963 0.66577369
0.089173183 0.24827276 0.65566289
0.049018525 0.23369443 0.69436044
0.081258193 0.23245357 0.66468406
0.073258802 0.08885859 0.80191773
0.06971699 0.1602276 0.72815704
0.26713681 0.26492316 0.69828767
0.099672005 -0.35170993 0.86688972
0.091192126 -0.31179976 0.90142542
0.28614265 0.24299301 0.6774742
0.025391866 -0.11566524 0.87260407
0.32131171 0.12052183 0.68302578
0.30588812 0.22486967 0.67791694
0.28173888 0.24813659 0.67966938
0.11162905 0.20384179 0.62736225
0.12497732 -0.19868647 0.8549943
0.35059035 -0.34058431 0.84409863
0.27063781 0.26568478 0.70294863
0.38268673 -0.21754308 0.89111328
0.20150669 -0.33967182 0.80480379
0.14120254 0.20559421 0.63204801
0.24024248 -0.084402189 0.80486065
0.073960923 0.10640852 0.74762064
0.13310871 0.11608556 0.68815351
0.13470322 0.18121301 0.62080395
0.10272566 -0.34758127 0.86522079
0.2787596 -0.24716553 0.83008665
0.087526545 0.11525324 0.72295517
0.10446475 0.11656868 0.70746934
0.01521883 0.16299196 0.78191435
0.28120267 -0.10697547 0.82256079
0.030888624 -0.1631543 0.80298954
0.037430488 -0.16273804 0.79874873
0.14296477 0.24668647 0.67106664
0.28597301 -0.0011777245 0.76106912
0.14729697 -0.32484511 0.79145479
0.27832097 0.26840222 0.71073985
0.14144956 0.26051474 0.685848
0.12247269 0.23107827 0.64953834
0.22620101 0.0013652388 0.71455425
0.27143961 0.24268064 0.6717788
0.18788289 0.034064975 0.70174271
0.076131389 0.035241514 0.80679435
0.31053501 -0.063614354 0.82661653
0.26924539 0.25855967 0.69390935
0.079634875 0.19217913 0.64918584
0.10050345 0.020838212 0.76938426
0.34358406 -0.29727954 0.84933525
0.20899941 0.042783089 0.69369811
0.17203507 0.08344692 0.69194293
0.30130827 0.26753184 0.71566671
0.10592279 0.25536847 0.66525644
0.29324156 0.10457133 0.7192741
0.11565903 0.27061805 0.6970194
0.21913794 0.047071837 0.69300365
0.087019742 0.081018031 0.76931453
0.089813404 0.12609413 0.72360963
0.10498185 0.12689014 0.70797992
0.01736011 0.14782239 0.79371184
0.13012992 0.18760791 0.62994188
0.21080875 0.038880497 0.69539857
0.2777741 -0.25679079 0.82701373
0.34468174 0.061532669 0.74546999
0.11692854 0.26203069 0.69338632
0.30032682 0.038527735 0.75763458
0.020979024 -0.11845745 0.8699103
0.13175522 0.12562323 0.68589884
0.11720303 0.2706309 0.70195949
0.079718292 0.066031359 0.78877121
0.27259243 0.26037636 0.69736159
0.13434757 0.085125357 0.70477176
0.17176309 0.25437912 0.66781723
0.36682892 0.16660024 0.71575755
0.35250753 -0.15158743 0.92996067
0.24642681 0.19802788 0.63484955
0.23289943 0.25187916 0.67527336
0.24381135 0.22737336 0.66496056
0.28654879 0.23077968 0.67310888
0.27388114 -0.0093329437 0.75194621
0.12138966 0.27286214 0.705697
0.22816686 0.031803735 0.6992408
0.16686861 0.25365856 0.66882473
0.29345679 0.1439833 0.66225761
0.34329671 0.20145109 0.67539519
0.25120699 -0.31906372 0.81322205
0.17934966 -0.23953502 0.8168363
0.18359247 -0.2368422 0.81824851
0.22722094 0.22415836 0.66379571
0.21731092 0.23512059 0.66495162
0.31405532 0.17444961 0.67389983
0.13067193 0.16335104 0.66442829
0.11453328 -0.18145727 0.80460942
0.24239631 0.2574527 0.68609756
0.27827513 0.26705906 0.71072531
0.28133327 0.26532981 0.71099615
0.28498524 0.2668187 0.71178979
0.2903927 0.26663643 0.71158999
0.32998914 0.24248065 0.69580364
0.29638445 0.26441172 0.71197051
0.35045832 -0.34458858 0.84393424
0.27215475 0.26258069 0.70215952
0.084175631 0.085484594 0.77957523
0.15973516 0.084546506 0.7130959
0.19798535 0.032271095 0.70076764
0.089439303 -0.30686998 0.90697169
0.12058514 0.26115635 0.69072586
0.072355181 0.089402407 0.79844362
0.12038619 0.2707969 0.70211112
0.11105765 0.23049197 0.64861089
0.28615999 0.22566393 0.66330469
0.2632162 -0.23432104 0.83658791
0.14884397 -0.22639279 0.84412867
0.12416522 -0.20169084 0.84485972
0.1152773 0.26284477 0.69520825
0.075602606 0.10328802 0.75357437
0.048119783 0.19299878 0.69364345
0.20356467 0.02736569 0.69976377
0.30831248 0.11097305 0.68927181
0.092090532 0.16100413 0.70993698
0.086729035 0.16141094 0.70533693
0.081446238 0.16179933 0.70044154
0.075063966 0.16377325 0.69609052
0.076184891 0.20747092 0.64472002
0.071818441 0.16447008 0.69048458
0.07587041 0.096146092 0.76291382
0.14710315 0.092763394 0.69961894
0.29568201 0.23455839 0.67896128
0.040659904 0.20773971 0.70044768
0.3140288 -0.1436094 0.88950872
0.29911584 -0.37121773 0.83017963
0.38779628 0.10219342 0.7709204
0.30011493 0.23992732 0.68979269
0.29273075 0.23964247 0.67847741
0.1375718 0.26507729 0.68866616
0.20263664 0.030779228 0.7006194
0.13768673 0.24539948 0.66599935
0.28187984 0.1813568 0.64731389
0.18090804 -0.11412372 0.84449714
0.21363416 -0.11609517 0.81764054
0.31057894 0.23438524 0.69347537
0.32525468 -0.1442958 0.90282345
0.10492546 0.18431982 0.65521508
0.037279852 0.18847498 0.7171976
0.18354699 0.052875761 0.70109946
0.077258065 0.10084194 0.7587505
0.14677133 0.18579344 0.61750114
0.073854066 0.054347951 0.80231184
0.32412684 -0.13929777 0.89467055
0.30037922 0.21803276 0.66834831
0.080057569 0.12263069 0.73917508
0.28996205 0.25428227 0.69544214
0.39186001 -0.20789266 0.9152925
0.30150104 0.12432025 0.65887249
0.2960462 -0.0021747141 0.77943063
0.25096232 -0.047386196 0.78404683
0.39833951 0.09499535 0.78513867
0.1608343 0.25603852 0.67263031
0.15050904 -0.011886045 0.72511262
0.25202662 -0.045047034 0.7782414
0.021351561 -0.096960321 0.93724501
0.30314207 -0.26961961 0.82166868
0.3980605 0.09478049 0.7909705
0.16575386 0.25549403 0.67092121
0.10999329 -0.0082567558 0.77103752
0.15356016 -0.011960888 0.72325027
0.21669322 0.25272554 0.67079431
0.31899756 0.11322859 0.76276678
0.3376587 -0.20939076 0.88691849
0.25883049 0.2558099 0.68643457
0.27342916 0.26383758 0.70496851
0.3828041 -0.21641058 0.89722437
0.28616637 0.26467007 0.70929658
0.35778826 0.1716475 0.69482315
0.12034038 0.201406 0.6281302
0.32549751 -0.31915295 0.83169842
0.28597295 0.25622016 0.6975925
0.13146392 0.11960956 0.68836629
0.32175255 0.22887826 0.69722372
0.29923147 0.26507479 0.714674
0.08961682 -0.31137675 0.90990674
0.2636106 -0.26214361 0.82204252
0.33782327 0.23906887 0.70517546
0.30254972 0.2661145 0.71752018
0.22677247 -0.32788527 0.80811727
0.099674493 -0.21802647 0.82086247
0.0084828176 -0.15311153 0.84683049
0.059671842 -0.16128793 0.8084178
0.30857271 0.26700747 0.71524549
0.12201005 -0.056663536 0.81893659
0.19384088 -0.058808368 0.75080264
0.21091104 -0.27983958 0.79812109
0.34770852 -0.24000636 0.85310715
0.23175746 0.18318646 0.6257962
0.22884886 -0.24054706 0.82194912
0.24220087 0.21991085 0.65653116
0.23021828 0.22333659 0.66472536
0.13160078 -0.10755557 0.86963415
0.10084692 0.25236544 0.65391564
0.091750711 0.24853596 0.6589027
0.23567258 -0.19967405 0.85521203
0.10358493 0.25455087 0.66218871
0.29620361 0.23450565 0.68218422
0.24433465 -0.041809954 0.76257253
0.14628434 0.20575106 0.63279366
0.19589974 -0.16321063 0.83827734
0.26892602 -0.26311344 0.81835687
0.29224324 0.24101083 0.68245685
0.14532053 0.24734432 0.67312276
0.29683137 0.21459471 0.66196269
0.059824698 0.16996084 0.66405702
0.32980794 -0.3335267 0.8360939
0.34478897 -0.31809175 0.83769387
0.077295214 0.10472691 0.74844092
0.14457825 0.26198345 0.68516427
0.31382334 0.03983834 0.77435499
0.32044506 0.11336458 0.69632971
0.30854958 0.26632991 0.71523815
0.082908601 0.21276554 0.63047892
0.083424531 0.25154281 0.66930956
-0.0022289827 -0.13683921 0.87175184
0.076763868 0.2472565 0.67065769
0.23624432 0.23636967 0.67144966
0.030507233 0.20826763 0.74753058
0.0326735 0.19514845 0.7319383
0.31672192 0.14475673 0.65923053
0.19878136 0.057841919 0.69600922
0.096757926 0.24717869 0.65159172
0.1322246 0.26328892 0.68870646
0.18926229 0.047121473 0.69803905
0.072830305 0.10642359 0.75448984
0.1366574 0.11497486 0.68585205
0.13880657 0.18195389 0.61902773
0.13637468 0.20576221 0.6317395
0.24222918 -0.038428392 0.75448781
0.31422579 0.23472795 0.69589317
0.071431562 0.061596382 0.7974934
0.30541611 0.26172912 0.70874828
0.27053052 0.0013985084 0.74074847
0.28465652 -0.0010961075 0.75768393
0.045608621 0.20449044 0.69459158
0.27366525 -0.24669966 0.82907718
0.13896431 -0.22578119 0.84232974
0.33282602 0.12862428 0.68748337
0.040605146 -0.099606946 0.89690959
0.28391075 -0.10719135 0.82343215
0.18886636 0.054201793 0.70216256
0.074766874 0.11666754 0.74421364
0.076952673 0.15927212 0.70327556
0.19836617 0.037369404 0.69679874
0.31008446 -0.3633939 0.8333537
0.10379387 -0.36703092 0.85182679
0.26964682 -0.23028944 0.83813787
0.31094837 0.11088897 0.68873549
0.087827809 0.16522717 0.70586979
0.074934751 0.20850217 0.64841086
0.081570536 0.22052687 0.64120096
0.060601469 0.1702815 0.6721822
0.062966734 0.1678015 0.67806864
0.066794276 0.16718106 0.68273598
0.071863458 0.16579023 0.69049889
0.077641547 0.16654707 0.69388801
0.08185529 0.16628635 0.70144677
0.12639634 -0.19225469 0.86357367
0.11627953 0.12533946 0.69466335
0.20758334 0.027229514 0.69968331
0.26485538 0.0015605125 0.73646039
0.30175102 -0.037138205 0.81934392
0.12017738 0.18139732 0.64154762
0.1684045 0.083466709 0.71066672
0.32817161 0.12337305 0.68854386
0.29866612 -0.37243196 0.83089834
0.13571253 0.26043612 0.68687034
0.28914034 -0.0012050858 0.76285857
0.13345309 -0.25681859 0.80324942
0.093438417 -0.21306221 0.80254567
0.15653907 0.25578395 0.67713195
0.24337299 -0.31489629 0.81536639
0.21439044 0.21275771 0.65601164
0.2146555 -0.033227954 0.7372961
0.086555801 -0.10143819 0.90235603
0.083175071 -0.13475132 0.85992497
0.12747726 -0.067098752 0.8603738
0.12708674 -0.087570623 0.87920028
0.12377048 -0.10600355 0.89729369
0.29569912 0.24946655 0.69674492
0.30669212 0.24162471 0.69851446
0.39759958 0.09390448 0.77982473
0.1574143 0.25437072 0.67320985
0.14586987 -0.011046692 0.72587758
0.10809139 -0.010511719 0.77817172
0.29484302 -0.0014373837 0.77547759
0.084753387 -0.21328421 0.78694278
0.33983874 0.22229034 0.69125581
0.20161262 0.24815932 0.66574436
0.19169319 0.23895861 0.65881944
0.13888364 -0.034390077 0.73930299
0.13139492 -0.061462786 0.77044541
0.14129354 -0.062161256 0.75814617
0.24740075 0.25434682 0.67893201
0.32508403 0.01926771 0.82303208
0.095642112 0.13100387 0.71454859
0.28686476 0.19369611 0.65706396
0.26540846 0.22744457 0.66484916
0.2675333 0.19776247 0.63603914
0.2512635 0.2516427 0.67558759
0.13563512 0.0057932418 0.7059207
0.23912904 -0.01427065 0.72989321
0.31767595 -0.12710504 0.88857502
0.10670125 0.21692701 0.63530439
0.22988808 -0.23021595 0.83081132
0.34408861 -0.14068899 0.92797166
0.30450165 0.18480678 0.66818428
0.23925075 -0.24009284 0.8326081
0.26060665 0.23146661 0.66717142
0.17127666 0.043171547 0.70960373
0.30390358 0.19455378 0.67285496
0.25301301 0.24953756 0.67403829
0.26152271 0.25074103 0.68052065
0.12020358 -0.18514106 0.85711235
0.28417349 0.23573537 0.67600948
0.095102347 -0.22603893 0.82078183
0.26928997 0.24857937 0.67789745
0.19287241 0.032488294 0.70244622
0.28002679 0.26279786 0.7048952
0.38206387 -0.21481159 0.90490323
0.14033945 0.19660005 0.63064915
0.12219757 0.21648791 0.63195503
0.06134253 -0.22384229 0.78539145
0.058928229 0.11248863 0.78858882
0.016461957 0.15057267 0.7858786
0.012721041 0.15818946 0.78620923
0.17048757 0.11436157 0.67542058
0.28085536 0.26103386 0.70559961
0.2389286 0.21382542 0.65875059
0.058734626 0.17170322 0.67880738
0.062371068 0.17060868 0.67270947
0.19862835 0.047463473 0.69840926
0.071766093 0.11735186 0.75402892
0.13460433 0.10490856 0.68399096
0.052134149 0.19146511 0.68283916
0.28311586 -0.23740204 0.8374933
0.29428619 -0.031246345 0.81328553
0.12583728 -0.066965044 0.83484727
0.11724228 0.13526341 0.69591779
0.21805996 0.028829401 0.69839972
0.34622663 0.13332771 0.69088602
0.14550543 0.25521988 0.68126124
0.37130737 0.17074615 0.70451277
0.056326978 0.17727368 0.66885853
0.070799425 0.20267127 0.65958261
0.29095238 0.25953448 0.70369053
0.31523877 0.24040408 0.70271844
0.37500447 0.17529504 0.70792735
0.2951591 0.26015955 0.70506966
0.0082904175 0.16498296 0.79717189
0.024489714 0.20657611 0.74268925
0.11066842 -0.00014103437 0.72366583
0.31585109 0.24562415 0.7010954
0.37348318 0.17559761 0.71000165
0.35008228 -0.33017182 0.84220797
0.29711646 0.26007834 0.70639986
0.11401355 -0.25509337 0.80623877
0.38988966 0.093170881 0.7630254
0.25859666 -0.20046493 0.85605097
0.35127908 -0.31979933 0.84132099
0.3011961 0.25814664 0.70210636
0.35233575 -0.31336862 0.84412396
0.27981746 0.001128111 0.75086945
0.39872748 0.094852835 0.77076691
0.053286821 0.17828734 0.67869139
0.10716836 0.26284516 0.68717748
0.10771523 0.26279444 0.69013226
0.3725785 -0.19030946 0.92610419
0.0075439382 0.17133915 0.80227393
0.19185099 0.16707458 0.63516873
0.316966 -0.11262591 0.85779583
0.31408298 -0.13342901 0.87827814
0.21376045 -0.23019178 0.83095002
0.21089378 0.16779147 0.61308259
0.24591297 0.20203952 0.63710177
0.055205781 -0.23771217 0.82876003
0.29564589 0.20994593 0.65976632
0.23598514 0.25178576 0.67722714
0.18392944 0.05761607 0.70319289
0.17573586 0.16900931 0.64649093
0.2461262 0.24313441 0.67419773
0.22334655 -0.26100758 0.80737001
0.24602745 0.25309506 0.67983621
0.10675278 0.2419112 0.65108383
0.085411645 0.22304083 0.64864886
0.20500351 0.14853722 0.62375182
0.30076563 0.20604396 0.66262639
0.23619449 0.18125238 0.62087184
0.10963874 0.19645065 0.64897037
0.032573666 0.19818893 0.72270131
0.20043847 0.14923452 0.61930013
0.11507927 -0.17184117 0.86802346
0.034373615 -0.21272308 0.82884258
0.24154143 0.24706158 0.67997301
0.03123064 -0.10474731 0.88644648
0.25833076 -0.29785919 0.81795257
0.19237851 0.12280267 0.67728668
0.26618671 -0.02881638 0.76709265
0.29202652 0.22678563 0.67539644
0.12290265 0.24743681 0.66496783
0.11103702 0.26574901 0.69641554
0.077016115 0.16015621 0.71013075
0.094604328 0.16171715 0.6958921
0.030871404 0.21596664 0.70662004
0.20255874 0.042538933 0.6965124
0.11656272 0.23071809 0.64615899
0.048467778 0.20774119 0.69273764
0.36664873 -0.2153798 0.89394605
0.049616933 0.21282282 0.6892724
0.20384197 0.047583614 0.69391263
0.29799688 0.10856098 0.72885257
0.27140981 0.24684653 0.67711252
0.1156017 -0.040762257 0.80955541
0.12882088 -0.25665736 0.80295032
0.15099211 0.25493914 0.67817432
0.17148075 0.22954814 0.64916015
0.17079152 0.25149319 0.6665476
0.11554024 0.095601976 0.70081133
0.073740914 0.061006065 0.79797661
0.18019165 0.058502603 0.70378464
0.14769576 0.091399133 0.70046639
0.30521125 0.25982007 0.70476311
0.31419551 0.24775085 0.70174778
0.043198586 0.20335113 0.69834936
0.28983873 -0.0019558338 0.76585346
0.13157739 0.25530678 0.68133283
0.28896981 0.22422263 0.66280806
0.042173214 -0.19627656 0.78937829
0.11830646 -0.21117075 0.84223193
0.043575592 -0.1875582 0.77880991
0.1867613 0.048092574 0.70059955
0.076093011 0.10601754 0.75555968
0.27909434 0.23352936 0.66463512
0.072617523 0.050063711 0.80661398
0.30218774 0.2345427 0.68421435
0.2164693 0.01703167 0.70461625
0.30115092 0.2568205 0.70209193
0.057093069 0.23240028 0.69086754
0.075852111 0.23367855 0.66764098
0.2612384 0.2085461 0.64210963
0.0965335 0.21222572 0.62919849
0.097243518 0.25174847 0.67166251
0.12172423 0.20145243 0.63075465
0.13479535 0.24540409 0.66285616
0.044662006 0.1948133 0.69553483
0.32874948 -0.31921107 0.83236581
0.36223406 0.17270167 0.69454521
0.38693273 -0.21136299 0.90828723
0.15076904 0.092092216 0.70910132
0.12612288 0.20612162 0.63083565
0.16845733 0.073163703 0.71072251
0.12683755 0.26083866 0.68919408
0.28253824 0.12569095 0.66933763
0.16155714 0.25269631 0.67036134
0.34593838 0.08706972 0.7753098
0.30865324 0.11374755 0.7075966
0.16581543 0.2483923 0.66271746
0.12933822 -0.24083397 0.81190497
0.072504088 -0.21559906 0.77493536
0.40076244 0.10002139 0.77532369
0.27936161 0.15132673 0.64875829
0.21713415 0.24748246 0.66965938
0.27898061 0.16159473 0.65166891
0.39053744 -0.17691731 0.93665373
0.025799166 0.21150589 0.76794207
0.067348957 -0.2807847 0.94416934
0.41386777 -0.19813997 0.90602398
0.096335694 0.21728104 0.63525486
0.089780137 0.24323678 0.66470915
0.10343993 -0.15743631 0.85169828
0.25050998 0.23244885 0.66657174
0.090884246 0.13156611 0.72047836
0.10064134 0.13147391 0.70992488
0.26034141 0.25081158 0.67773187
0.26506281 0.25204235 0.68216592
0.033714682 -0.19360627 0.82855338
0.32426542 -0.3210665 0.83218735
0.28841275 0.25783476 0.69891238
0.11879463 -0.25138906 0.80671054
0.30119896 -0.042521212 0.81817955
0.11192238 0.24149011 0.65141809
0.034845386 0.21851325 0.69855624
0.31430548 0.23906294 0.70079041
0.37231266 0.17634434 0.7025882
0.29635304 0.25755441 0.69979441
0.091671124 -0.33695039 0.91029888
0.10537787 0.19626506 0.65078586
0.033462018 0.19889449 0.71814549
0.26709586 -0.077437922 0.81242532
0.31534714 0.24371679 0.70287627
0.15665002 0.21520686 0.63684893
0.27884829 0.078300267 0.72248292
0.15010461 0.25635892 0.68152845
0.29899669 -0.22944 0.84891725
0.015799752 0.18298413 0.78346837
0.21602547 0.20705773 0.65486896
0.17029236 0.17799272 0.6378994
0.10886589 0.029971642 0.72791213
0.21766135 -0.05637243 0.76563567
0.17534597 0.17924227 0.64214516
0.11457533 0.08531101 0.70987535
0.32343274 -0.26373079 0.83176273
0.097097777 0.070082769 0.75914925
0.10292175 -0.026303045 0.82230264
0.19933563 -0.028307781 0.73195416
0.3105917 0.25346485 0.70151204
0.27781218 0.11874957 0.67385995
0.35270941 -0.20542017 0.90167618
0.15447719 0.20881137 0.6346761
0.15638037 0.24954014 0.67226356
0.064034015 0.1878387 0.66333109
0.050860427 0.18618838 0.68060333
0.029014993 -0.094048202 0.95463985
0.086591244 -0.091729537 0.9180702
0.071034908 -0.12969433 0.8627845
0.12434517 -0.32634097 0.79156178
0.12251897 -0.3317425 0.79611087
0.1298895 -0.067790151 0.85463107
0.12566517 -0.09239921 0.88020861
0.12358481 -0.10760163 0.89603728
0.10936041 0.092280552 0.70975095
0.1714109 0.18976945 0.62790769
0.06439317 0.12144087 0.79562098
0.06420996 0.12854543 0.79951775
0.23851518 -0.056125719 0.78627366
0.10448189 0.15864056 0.67199838
0.16022389 0.25146368 0.6705727
0.013313394 0.182796 0.79626626
0.1801955 0.17903295 0.64379615
0.11750892 0.0097486135 0.70056301
0.25188637 0.24538073 0.6724273
0.19160539 0.16844216 0.63855302
0.11698367 0.1558551 0.68985748
0.24645269 0.20359512 0.64107043
0.091734752 0.24700037 0.65181386
0.053306289 0.13314076 0.80175072
0.18775137 0.1296155 0.67694122
0.11193483 0.15538827 0.69563222
0.29258412 0.22508764 0.67188185
0.17073683 0.097203627 0.68118292
0.11649554 0.21334021 0.63011122
0.17706601 0.058043215 0.71112937
0.14950004 0.089543 0.71074778
0.011967089 0.14787981 0.78775328
0.23092638 0.001164238 0.71499962
0.12574244 0.20135197 0.63245785
0.17991756 0.083477482 0.6877768
0.22895953 -0.04069858 0.75134957
0.20852092 0.047433756 0.69301766
0.17944871 0.078708157 0.69204175
0.17230739 0.088448435 0.69419479
0.01862531 0.14843817 0.78268766
0.090139382 0.13647348 0.72445869
0.12171869 0.20654799 0.62973118
0.05196397 0.21282764 0.68661624
0.13649225 0.19129907 0.63145089
0.21847573 0.038557988 0.69447637
0.13058433 0.13464411 0.68440485
0.17800392 0.062307313 0.70639426
0.26801395 -0.0091149919 0.74651736
0.28310096 0.23582818 0.67082524
0.11062653 0.26300558 0.69500256
0.1694544 0.068581134 0.71262753
0.090188459 0.16508617 0.69558084
0.084013283 0.080990195 0.77976531
0.031465877 0.21592271 0.7088021
0.10088859 -0.3658829 0.86600655
0.098514944 0.14602268 0.71158749
0.086506508 0.15846673 0.71068048
0.17019066 0.083589911 0.69747496
0.075824216 0.12675673 0.74792522
0.20783 0.0403702 0.69629937
0.27105999 0.24472289 0.67279351
0.07509768 0.19141333 0.64881253
0.29663211 0.11447871 0.71156329
0.25070345 -0.075381994 0.80311394
0.077688076 0.059865884 0.78948331
0.14001413 0.21705763 0.63937455
0.2073959 0.017386064 0.70416081
0.37665337 0.096131653 0.77633119
0.18899183 0.16875602 0.64772308
0.031166531 -0.11907309 0.87092936
0.11927473 0.19646986 0.64088923
0.14135346 0.25546852 0.68273973
0.20279776 0.14644021 0.63849878
0.092024893 -0.35163203 0.89555705
0.25327516 0.20540249 0.63832575
0.25143355 0.24869673 0.67478734
0.076199606 -0.2872757 0.93561077
0.26773274 0.25268838 0.68598336
0.24457498 -0.024510309 0.74054742
0.093671441 -0.14609799 0.84854782
0.15100482 -0.36231881 0.79314989
0.1066183 0.20368284 0.62695843
0.19145928 -0.3188881 0.80047077
0.17125648 -0.073713481 0.7565462
0.26549631 0.2106037 0.64723825
0.14656612 -0.35760379 0.79345006
0.21602057 0.13166802 0.67706543
0.15010524 -0.14465527 0.85859346
0.22317296 -0.20597638 0.84878021
0.27088493 -0.30165491 0.82315826
0.10151441 0.20719114 0.62685543
0.11529164 -0.091929078 0.92667407
0.31104678 0.24748331 0.70162451
0.30336672 0.25636303 0.70141494
0.055622175 0.23845537 0.69362611
0.079263389 0.2393135 0.66749424
0.010254338 -0.11778684 0.87925833
0.25686038 -0.14524679 0.83413178
0.25481516 -0.16236575 0.84655696
0.26834309 0.20366064 0.64000744
0.25500286 -0.01921116 0.74127185
0.22183703 0.15570959 0.63689899
0.25624198 0.21028118 0.64186263
0.051173281 0.13293898 0.82373726
0.20675994 0.12785517 0.6792801
0.089658409 0.24815437 0.66819012
0.10113578 0.25669703 0.67285967
0.058650613 0.21790071 0.68313795
0.14436466 0.23820701 0.65698451
0.021777259 0.14269871 0.8052302
0.11119993 0.25592712 0.67640555
0.2790398 -0.016132176 0.76551253
0.11617777 0.2553688 0.67652291
0.13119945 -0.072490439 0.87378436
0.19216414 -0.12434483 0.84532434
0.21282408 -0.12456287 0.82786977
0.24878189 -0.13117163 0.82759756
0.2378394 -0.14166906 0.82599717
0.17096724 -0.14367415 0.84415746
0.23210306 -0.14621054 0.82692599
0.18614261 -0.1642424 0.83990419
0.23099433 -0.16675323 0.84651196
0.18976799 -0.16899034 0.83929127
0.21173885 -0.18466707 0.84536994
0.20076589 -0.18578099 0.8379153
0.20557632 -0.18499389 0.84081519
0.10546247 0.0049180724 0.74521053
0.28962231 -0.081957638 0.81999969
0.1722607 0.11313948 0.6729188
0.10808476 0.0043111029 0.74218577
0.12090413 0.25558677 0.67727059
0.18105251 0.047900822 0.70467633
0.120961 -0.0069512147 0.7498675
0.12409397 -0.0070011523 0.74379122
0.076456502 0.16086847 0.70360607
0.089526534 0.16184457 0.69411343
0.11937994 -0.015724676 0.75879025
0.29206949 0.22804482 0.67541009
0.38864374 0.1110536 0.77097541
0.39906991 0.11159033 0.76362306
0.12562026 0.25579947 0.67862618
0.10533321 0.01544424 0.74391693
0.11477858 0.23557226 0.64834964
0.29422098 -0.0013844552 0.77255392
0.29128653 -0.046804901 0.81788188
0.25331897 -0.044190776 0.77475834
0.31545639 -0.072432339 0.81523508
0.39822453 0.095991716 0.77528709
0.15277727 0.25258663 0.67477649
0.10820156 -0.0082260817 0.77365828
0.14252768 -0.011650031 0.7276172
0.27751678 0.12055953 0.66973269
0.28969526 -0.022202287 0.79245573
0.15839373 0.24948902 0.66935188
0.36041898 0.015334546 0.85157287
0.21043438 0.20787227 0.65473253
0.19586399 0.18827906 0.64663744
0.053299598 0.18789057 0.67864543
0.031140599 -0.094482273 0.9546721
0.2883023 -0.025996627 0.79618108
0.32305592 -0.2632376 0.83277279
0.28441781 0.044698071 0.73446316
0.1020638 -0.025557617 0.82850975
0.20366555 -0.028389532 0.730398
0.15740606 0.22994129 0.64609551
0.31541252 0.25291285 0.70173454
0.11861931 -0.37575093 0.80608773
0.23783812 0.041855432 0.69565517
0.32580072 -0.1786211 0.8990162
0.082833447 -0.27527189 0.86686867
0.079395652 -0.27097055 0.87162668
0.074293748 -0.26594952 0.86905122
0.34733081 0.086273044 0.77675766
0.16382217 0.24843511 0.66503936
0.3440215 -0.029026382 0.87752831
0.13383825 -0.24070109 0.81170636
0.071099877 -0.21909241 0.77659458
0.070301086 -0.21226102 0.77320045
0.4000544 0.098666832 0.78250223
0.28362942 -0.01719903 0.77886552
0.33851975 -0.19893076 0.89663374
0.1656585 0.24522153 0.66088372
0.1635267 0.24430063 0.65912503
0.31210184 -0.08192265 0.82266593
0.33650357 -0.19480604 0.89696914
0.16704632 0.24442582 0.65865862
0.16235684 0.2448341 0.66214764
0.30890656 -0.074268565 0.80935615
0.31023616 -0.09287414 0.82995981
0.30855876 -0.10271938 0.83873153
0.17175739 0.2446554 0.65829086
0.087516025 0.095884234 0.7297774
0.10953021 0.095684856 0.70837492
0.19116636 0.24334753 0.66009504
0.24594694 0.2473388 0.67617339
0.02572985 0.14291467 0.78322548
0.19848664 0.1485381 0.6279245
0.17875746 0.053426143 0.70656061
0.043392625 0.14610364 0.76958358
0.24691139 0.19250107 0.62975138
0.26019955 0.24509695 0.67245293
0.10571808 -0.16047435 0.85958165
0.049248315 0.1470069 0.76753187
0.15125822 0.14441362 0.67418069
0.26061076 0.2063642 0.6380406
0.26202321 0.2467948 0.67578149
0.13857286 0.01453785 0.7084915
0.16075288 -0.13263409 0.84822875
0.22135438 -0.19559956 0.84977829
0.24313368 -0.0691659 0.81186604
-0.00046440586 -0.13156995 0.87239414
0.095086873 0.25095364 0.66205388
0.1793572 0.16934879 0.64873457
0.063479699 0.12142833 0.799649
0.061879806 0.13125725 0.78783119
0.063482031 0.13481748 0.78584397
0.35939139 0.1242546 0.76944393
0.17265853 0.18702462 0.63229275
0.012015587 0.19312833 0.7814616
0.35419375 0.12061134 0.76908183
0.25921524 0.13579229 0.6757037
0.15113166 0.20927311 0.63417596
0.15140097 0.24879569 0.67361277
0.27776867 0.11747339 0.67384613
0.41796303 -0.20703624 0.91054451
0.2913112 -0.3161073 0.82251012
0.25814027 -0.27104047 0.81093454
0.28601795 0.20564359 0.6575278
0.29868585 0.19075049 0.65935636
0.34186244 0.15863071 0.6840508
0.13503642 -0.025944907 0.74597734
0.27800542 -0.29061493 0.81212556
0.26785427 0.20490873 0.63801003
0.26624376 0.24574819 0.67643768
0.13591743 0.014555488 0.7064504
0.30970794 -0.087918356 0.82630599
0.28647339 0.25234428 0.69254977
0.18713436 0.22821395 0.65311295
0.30904907 -0.21847099 0.86177778
0.072939426 0.13171938 0.76294875
0.036368646 0.13410759 0.83413255
0.081269026 0.24808793 0.66563523
0.13670526 -0.046283871 0.7627725
0.40487581 -0.21924394 0.89513201
0.22075462 0.17265911 0.61948454
0.22526775 0.17303506 0.62506539
0.1164543 0.19130237 0.64580679
0.086876303 0.20229289 0.62685621
0.073610738 0.16012715 0.7487902
0.11768588 -0.28658819 0.83174706
0.21504468 0.16315484 0.62214136
0.24160039 0.18643676 0.62693101
0.25009823 0.23634227 0.66879678
0.22032094 0.16813269 0.62375617
0.10148592 0.24706554 0.66053468
0.35492557 -0.23267622 0.85943627
0.23949474 0.19955251 0.63850045
0.24133296 0.2022858 0.64069855
0.090277426 0.050607439 0.76895511
0.17573206 0.01810779 0.71438807
0.086288095 0.01989577 0.79985464
0.35578603 0.21287322 0.69592237
0.10684923 0.24675542 0.65953434
0.15195563 0.094513059 0.6844967
0.069723621 0.20776336 0.6591056
0.11162207 0.24671866 0.6606456
0.069142483 0.097936586 0.76733571
0.15010829 0.093566343 0.69206786
0.25080866 0.010830237 0.7209568
0.11664747 0.24653445 0.66182828
0.045801841 0.21385489 0.69311112
0.26934332 0.0098023927 0.7369622
0.13621274 0.20094885 0.63162935
0.12019596 0.24716283 0.6634053
0.16686435 0.088998914 0.7026242
0.050700903 0.20316908 0.68960714
0.1270376 0.23081693 0.64885515
0.12673239 0.24970645 0.66711676
0.13024774 -0.072028086 0.87935561
0.075741917 0.080727085 0.79340166
0.35770661 0.071479693 0.76534408
0.17582257 0.07889916 0.70289916
0.13647895 0.20877171 0.63172919
0.13513514 0.25075588 0.67392886
0.1472749 0.23175476 0.64692158
0.13637057 0.2506977 0.67540973
0.26548117 -0.071105078 0.81004894
0.22352183 -0.11043467 0.80861217
0.22143956 -0.12879717 0.82712877
0.22725476 -0.13516456 0.82704872
0.24440642 -0.18591219 0.85837513
0.27930921 -0.097289413 0.81957829
0.11754047 -0.25613362 0.80470669
0.38896966 0.091728166 0.76700562
0.1409284 0.25295538 0.67812395
0.089022771 -0.34332594 0.91212022
0.31146252 0.24017876 0.70159978
0.19130966 0.17338857 0.64674526
0.16231745 -0.30830848 0.79939485
0.16841327 -0.30811852 0.80154979
0.26898426 -0.23660178 0.8334226
0.2841422 -0.23293626 0.84331477
0.046586432 -0.19761907 0.78063673
0.044450954 -0.19331567 0.78387851
0.19386755 0.052875731 0.69706756
0.071065448 0.11054477 0.75703549
0.30894631 0.24358773 0.70076627
0.044907566 -0.14510401 0.83716315
0.046689827 -0.14933339 0.8291328
0.044990465 -0.15205646 0.82407975
0.28495759 -0.091839254 0.8203932
0.26082861 -0.076012731 0.80784231
0.016705766 -0.098854885 0.91295612
0.040788367 -0.14877348 0.8334285
0.011642147 0.17642049 0.78781396
0.13449056 0.073996201 0.70866114
0.098330416 -0.21947742 0.81309611
0.27716398 0.11647069 0.67962587
0.093128219 -0.17094401 0.77204257
0.36712939 0.12622581 0.75010395
0.25879616 0.134055 0.67906779
0.1505402 0.25020048 0.67669767
0.1964768 0.24167094 0.65995735
0.22217467 0.24529184 0.66748774
0.022713205 0.19814783 0.75970513
0.092500217 -0.31665227 0.90140826
0.27342451 -0.2571345 0.82680476
0.25843287 -0.24194032 0.82777125
0.2860859 0.24537228 0.68247265
0.29431653 0.10445197 0.72689903
0.11595596 0.11604474 0.69473642
0.25509739 -0.097993061 0.81232482
0.076610044 0.12674911 0.74615782
0.075794399 0.13643061 0.75441432
0.32023662 0.12061967 0.67738616
0.30702245 0.22478715 0.68195772
0.28230602 0.24809407 0.68180633
0.03718856 -0.15386324 0.81499678
0.08012858 0.18760303 0.64497489
0.27760559 0.1985324 0.64833373
0.25386059 -0.26071629 0.82128912
0.14651604 0.084570184 0.71382147
0.019429239 0.17824441 0.77700913
0.28630888 0.24981672 0.68799382
0.059625685 0.10658833 0.76827145
0.072180413 0.16340825 0.69406605
0.079612762 0.20679428 0.64327872
0.32473272 -0.13939153 0.90141016
0.093181498 -0.31179452 0.89468938
0.27867037 -0.25796947 0.82409757
0.07418441 0.21314207 0.64478153
0.29866374 0.24229901 0.69055724
0.14627554 0.25184754 0.67959225
0.049648121 0.1930104 0.68795264
0.16369309 0.11527981 0.67956328
0.28590173 0.19258535 0.64874905
0.27721107 0.17875852 0.64489049
0.28937769 0.0023277337 0.76501304
0.38608718 -0.21765737 0.89095932
0.27833831 -0.26683626 0.81500316
0.16134179 0.10937993 0.67755646
0.12320282 -0.063128158 0.84724063
0.3245641 -0.14422171 0.89816511
0.40099686 -0.19677232 0.9287979
0.094484136 0.19142154 0.64660722
0.39661515 -0.20784758 0.91528398
0.13700062 0.23002903 0.64542747
0.26348948 -0.025640197 0.7604304
0.26660532 0.11803336 0.67521507
0.17255744 0.23926872 0.65265977
0.17620516 0.23926613 0.65434575
0.11493383 0.17175873 0.64082038
0.30095208 0.24908477 0.6990062
0.08780624 0.24827673 0.66254896
0.048194595 0.20279084 0.69287413
0.12498993 0.24773492 0.66625255
0.16524827 0.24187456 0.65588427
0.30222338 -0.086196914 0.82794207
0.30529618 -0.10758799 0.84654528
0.38163978 0.093317449 0.80911988
0.11820963 -0.12614612 0.89740479
0.11908489 -0.13061167 0.89268607
0.16751803 0.24143079 0.65432775
0.055486638 -0.094714314 0.91234618
0.060408294 0.21755764 0.67944312
0.065038025 0.21904661 0.6742956
0.12140511 -0.12239592 0.89374107
0.28799915 0.12848689 0.66664124
0.18269041 0.23940121 0.65655816
0.23169988 0.24200213 0.67117512
0.25137132 0.2418361 0.67214257
0.31378639 0.16921282 0.67026383
0.27644521 0.24073353 0.6712485
0.038329985 -0.21326543 0.83467048
0.086695708 0.21221726 0.62908161
0.085252404 0.25081363 0.67156035
0.29095668 0.20453598 0.66283852
0.097198173 0.2366419 0.65104169
0.26560909 0.20623498 0.64180267
0.091855392 0.21272317 0.62996566
0.053678658 0.23645379 0.69127977
0.075597182 0.23823385 0.66886961
0.089380242 0.25019792 0.66885549
0.21832007 0.062097274 0.69217896
0.087315217 0.24241175 0.66576976
0.2541787 -0.0022916235 0.73042214
0.069470063 -0.28505686 0.94805491
0.21484494 0.077363551 0.69291103
0.053324424 0.14440146 0.78541201
0.16593711 0.1430645 0.6752848
0.097276762 0.24183457 0.65556175
0.10175893 0.24208146 0.65108728
0.11627439 0.24133474 0.65205973
0.093693808 -0.23302662 0.81785208
0.13108177 -0.020517526 0.73544949
0.01051287 0.1614584 0.78873783
0.38121569 0.019656632 0.84990418
0.22832255 0.19945022 0.64864552
0.18196607 -0.30858448 0.80476385
0.26890427 -0.24732003 0.82845348
0.18861842 0.16165218 0.65252078
0.19026527 0.15962166 0.64773279
0.12778306 -0.066927925 0.82530868
0.19773193 -0.067905799 0.76196361
0.27850235 -0.21302596 0.85472047
0.17749451 -0.31304637 0.80212498
0.24619178 0.21242353 0.65095025
0.26056111 0.00028839568 0.73495269
0.040853746 -0.11419898 0.87608284
0.040778883 -0.13281947 0.8557086
0.10138343 -0.35714203 0.86535031
0.23393561 0.20393455 0.64959097
0.22614266 -0.029342365 0.73631829
0.12056076 0.18631648 0.64080167
0.11854099 -0.21732415 0.8570348
0.1364509 0.10973322 0.68652564
0.12226307 0.24186596 0.65436596
0.14098707 0.18101144 0.6164943
0.30038351 -0.012056353 0.80087721
0.12683113 0.24207623 0.65576792
0.13168934 0.23628777 0.65504724
0.094772533 -0.26039684 0.81295663
0.090032458 -0.25412273 0.81180006
0.13001478 0.2443427 0.65784115
0.0098604523 -0.13801159 0.8487457
0.026365809 -0.15286995 0.81999767
0.3135646 0.22993879 0.69355339
0.19306338 0.15232858 0.64755321
0.13289286 0.24497445 0.6611219
0.3775509 0.16628681 0.72680777
0.28419596 -0.014190819 0.77087772
0.32497102 -0.28771901 0.82728046
0.15828736 0.2445944 0.66364664
0.11775276 -0.14067329 0.89135706
0.16006963 0.24092878 0.65705085
0.16160592 0.24001804 0.6531589
0.081660166 -0.15538059 0.82133716
0.38339245 0.095584512 0.80539864
0.27536303 -0.36276475 0.82575017
0.16398369 -0.27371496 0.79384404
0.080882363 -0.20994134 0.77635223
0.081633225 -0.20494951 0.77282578
0.16709015 0.2393367 0.65029919
0.10752195 -0.21345313 0.82733262
0.11771584 -0.21108481 0.83616543
0.00011039525 -0.15174064 0.87831545
0.16153084 0.19005664 0.62123889
0.18181223 0.23845302 0.65430069
0.22252445 0.016824402 0.70468718
0.28730154 0.12916465 0.66160804
0.18672121 0.24038562 0.65838832
0.26209414 -0.051598851 0.80522448
0.30625761 -0.17298551 0.87494576
0.20183019 0.2418617 0.66077977
0.23478213 0.17211509 0.62526107
0.26009047 0.086939663 0.71541846
0.25555247 0.085782096 0.70983529
0.23610979 0.17271726 0.62009162
0.23339044 0.12909189 0.66594934
0.3393206 -0.17415833 0.91574353
0.30613565 -0.17794646 0.87364876
0.20714346 0.24129504 0.66107506
0.11377463 -0.28688973 0.83669418
0.044228856 0.22877771 0.69904876
0.085978806 0.22796445 0.65890855
0.031372603 -0.10426041 0.88926679
0.25288749 -0.29766211 0.8168962
0.24091174 0.18108714 0.62127423
0.26336974 -0.03018726 0.76395732
0.23873308 0.24691023 0.67858696
0.27167851 0.24054959 0.66795659
0.27557653 0.23688982 0.66727144
0.26672542 -0.0055246688 0.74392426
0.24945635 -0.035243835 0.7581017
0.27527785 0.24080215 0.66859341
0.091890089 0.067152843 0.76417881
0.14348389 0.064402044 0.71553439
0.1906319 0.15839125 0.66379458
0.15866283 0.17203851 0.6244058
0.27116001 0.23704445 0.66690248
0.054040726 0.17395113 0.67802244
0.062062465 0.17155473 0.66893572
0.30423212 -0.032504331 0.81883973
0.30772543 0.23419431 0.68665397
0.29043722 0.24848706 0.68800128
0.05744531 0.17798498 0.66803247
0.054682948 0.17772052 0.67305613
0.2944774 0.24953638 0.69414973
0.30548322 0.2416994 0.6954295
