ply
format ascii 1.0
comment PCL generated
element vertex 1387
property float x
property float y
property float z
element camera 0
property float view_px
property float view_py
property float view_pz
property float x_axisx
property float x_axisy
property float x_axisz
property float y_axisx
property float y_axisy
property float y_axisz
property float z_axisx
property float z_axisy
property float z_axisz
property float focal
property float scalex
property float scaley
property float centerx
property float centery
property int viewportx
property int viewporty
property float k1
property float k2
end_header
-0.041596234 0.034395956 0.79083687
-0.011100441 0.10496484 0.72274309
0.17845649 0.21008438 0.78475893
-0.048261702 -0.40535554 0.86562812
-0.07146281 -0.36511379 0.89208096
0.20481706 0.18800688 0.77511245
-0.11667123 -0.16954648 0.83429945
0.23343575 0.065735497 0.79741824
0.22217453 0.16996412 0.78468907
0.1999042 0.19315672 0.77500701
0.072131068 0.14766605 0.65155655
-0.020092845 -0.25237215 0.86483479
0.1855855 -0.39352235 0.95932257
0.17945573 0.21090865 0.79049337
0.19296649 -0.26986891 1.0144138
0.07068567 -0.39359102 0.85651755
0.096340388 0.14958002 0.66915953
0.10552804 -0.1381904 0.87133461
-0.016251028 0.051371634 0.74260706
0.06348528 0.060641363 0.71644151
0.095630616 0.12505652 0.65646273
-0.044777095 -0.40123326 0.86548454
0.128122 -0.30053008 0.91313356
0.0070611238 0.060005583 0.72671252
0.029191062 0.061220855 0.7206105
-0.084080964 0.10809276 0.74579954
0.13392401 -0.16041949 0.90597731
-0.080183983 -0.21774994 0.77533579
-0.072428524 -0.21735388 0.77452976
0.08022368 0.19109008 0.70424932
0.16629249 -0.055262499 0.8522054
0.028499618 -0.37911204 0.81981045
0.18275872 0.21373761 0.80089551
0.072171733 0.20506847 0.71656907
0.071742088 0.17517701 0.67593247
0.13421886 -0.053439241 0.78357047
0.19431257 0.18757842 0.76335716
0.10596727 -0.021022514 0.75436962
-0.041333675 -0.019155122 0.79708475
0.1582655 -0.11690709 0.92244494
0.18231636 0.20368284 0.78188992
0.033694983 0.13611443 0.65657073
-0.0026348233 -0.033861943 0.77501494
0.17702702 -0.35019138 0.96031606
0.12844479 -0.012310315 0.7567119
0.096381947 0.028192386 0.73788387
0.20098901 0.21300653 0.81574708
0.04988952 0.19956967 0.68213195
0.19192776 0.050064124 0.81711054
0.044136807 0.21519199 0.71467549
0.13779612 -0.0079908222 0.76065654
-0.014524251 0.026262261 0.7681486
0.0088158846 0.070861384 0.72821426
0.029434353 0.071549028 0.72118503
-0.087561518 0.093057334 0.75744879
0.087410972 0.1315306 0.66244906
0.12927713 -0.016187783 0.75909269
0.12862793 -0.31019104 0.91005635
0.22576347 0.0075007454 0.86431372
0.046907276 0.20657143 0.71211332
0.18069553 -0.01554165 0.85523146
-0.11938021 -0.17238379 0.82992488
0.063319176 0.070149407 0.71371162
0.043265134 0.21526307 0.71977681
-0.029897541 0.011455216 0.78232205
0.18372977 0.2055487 0.78646606
0.056985676 0.029864065 0.73214972
0.10736023 0.19885686 0.71436697
0.25915334 0.11233038 0.84675312
0.14851695 -0.20361978 1.0345469
0.18876706 0.14244221 0.71959364
0.15841298 0.19666752 0.7488389
0.17278579 0.17209524 0.74489129
0.20714644 0.17574956 0.77154613
0.15966088 -0.063559718 0.838673
0.045297101 0.21754962 0.72498429
0.14297837 -0.02315763 0.77048755
0.10254197 0.19812849 0.71304625
0.21810788 0.088869795 0.76599354
0.25660327 0.14666191 0.7997179
0.11114959 -0.3727068 0.88638729
0.045625731 -0.29341689 0.85603803
0.048765957 -0.29069322 0.85919517
0.15853561 0.16880527 0.7363447
0.14920005 0.17974155 0.73274469
0.23120201 0.11953558 0.78538907
0.072173983 0.10764304 0.69367754
-0.0064540505 -0.23571789 0.81502336
0.16195604 0.20239148 0.76273501
0.18272263 0.21239424 0.80087668
0.1853205 0.2106795 0.80252802
0.18821415 0.21219051 0.80487907
0.19312057 0.21202666 0.80716234
0.23552936 0.18785489 0.811382
0.19828045 0.20982876 0.81025106
0.18553692 -0.39752865 0.95916092
0.18116108 0.20780209 0.79051518
-0.02171728 0.030826569 0.77594274
0.075808927 0.029469647 0.75111508
0.11540526 -0.022788368 0.75811583
-0.075539112 -0.36013216 0.89616781
0.051372513 0.20568278 0.7114169
-0.040820181 0.034899466 0.78732598
0.046031311 0.21544266 0.72135764
0.061996907 0.17453769 0.66992164
0.21125171 0.17052869 0.76269543
0.11134103 -0.28767633 0.91171074
0.0060640574 -0.2801016 0.86632228
-0.016211212 -0.25548688 0.85547388
0.044609249 0.2073985 0.7129758
-0.017501265 0.048320688 0.74869055
-0.014590323 0.13728616 0.68181974
0.12082359 -0.027682986 0.75981402
0.21900415 0.056204334 0.79717529
0.017112881 0.10563278 0.71668416
0.014430687 0.1059705 0.71014482
0.011952877 0.10628694 0.70337844
0.0082505643 0.10819045 0.6965791
0.032675713 0.15134484 0.65085405
0.0079107583 0.10881551 0.69010305
-0.021520764 0.041279249 0.75720912
0.070700243 0.037495255 0.73327678
0.21262416 0.17962466 0.78086925
-0.024307191 0.15207005 0.68432176
0.13265741 -0.1962169 0.98093444
0.1460287 -0.42449629 0.9238593
0.25264502 0.048592009 0.9061321
0.21165377 0.18512489 0.79247099
0.21022329 0.18469211 0.77903932
0.067443162 0.20964593 0.71726424
0.11961289 -0.024264108 0.76011586
0.077825874 0.18972947 0.69735074
0.21464825 0.1260386 0.74700332
0.034615412 -0.16771436 0.87997913
0.075972542 -0.16984658 0.8709681
0.21928996 0.17966183 0.80057132
0.13659853 -0.19671953 0.99790466
0.053465039 0.1284153 0.67352962
-0.03496328 0.13297138 0.69791591
0.10242559 -0.0022361614 0.75161487
-0.018384576 0.045935906 0.75408012
0.10788709 0.12964733 0.65895879
-0.041295409 -0.00010606274 0.79184389
0.13930929 -0.19181256 0.99007559
0.22161034 0.16300534 0.77373892
-0.0069568455 0.067526281 0.73767763
0.20006314 0.19950041 0.79272437
0.19015339 -0.25992793 1.0400102
0.22678301 0.069202557 0.76685703
0.16691127 -0.056026582 0.87314916
0.12459491 -0.10135691 0.85726118
0.25555784 0.04158508 0.92366916
0.095440567 0.20052576 0.71366429
0.061987057 -0.066864274 0.75869715
0.12818648 -0.099075437 0.8525492
-0.14964122 -0.15017259 0.88981777
0.15363273 -0.32297969 0.91697675
0.25265667 0.04143104 0.92873812
0.10059839 0.19998181 0.71438563
0.0050225854 -0.062901601 0.78112799
0.065551236 -0.066947311 0.75842708
0.14601821 0.19740504 0.73747027
0.19509783 0.059279561 0.86745894
0.15478456 -0.26193208 0.99010891
0.17643657 0.20081455 0.77052748
0.18102035 0.20909354 0.7935822
0.19029328 -0.26867124 1.0198965
0.19039682 0.21002012 0.80321991
0.26063019 0.1171211 0.82394242
0.079536498 0.14527155 0.6562295
0.16890886 -0.37231886 0.93662858
0.19553533 0.20144585 0.79280347
0.061928809 0.064161189 0.71584368
0.22752836 0.17423724 0.80905253
0.19958737 0.21053126 0.81394601
-0.076722443 -0.36460683 0.89891261
0.11826721 -0.31564987 0.89924765
0.23823908 0.18457238 0.82332873
0.20124963 0.21161366 0.81797808
0.091697305 -0.38167447 0.87082732
-0.027132154 -0.2721687 0.82314789
-0.12006274 -0.20732772 0.80407536
-0.057015955 -0.21571715 0.7932393
0.20764947 0.21250525 0.81868166
-0.0061302185 -0.11075187 0.8297891
0.088826001 -0.11334713 0.80180562
0.08218722 -0.33379784 0.85417533
0.17906791 -0.2928662 0.96491134
0.1797986 0.1274502 0.70502561
0.087382495 -0.29418728 0.8831141
0.17517437 0.16453771 0.73673546
0.16078103 0.16800478 0.73854488
-0.020720035 -0.16106674 0.87986672
0.050522476 0.1964274 0.66975772
0.040147796 0.19261658 0.67010474
0.078390926 -0.2529383 0.91538268
0.049201459 0.19871074 0.67834592
0.21162283 0.17960806 0.78397727
0.12846704 -0.096033834 0.83506119
0.10052727 0.14976399 0.67213297
0.050724372 -0.21680737 0.88180649
0.12467587 -0.31663859 0.89839375
0.20798126 0.18610072 0.78234619
0.081387535 0.1917786 0.70714444
0.22134984 0.15948634 0.76647717
0.0092565417 0.11398026 0.66105264
0.17072779 -0.38662878 0.94266367
0.18336445 -0.37112111 0.95072943
-0.013657033 0.049711466 0.74487275
0.075271219 0.20654172 0.7173667
0.18511283 -0.014002729 0.87624484
0.22660288 0.058716483 0.8089515
0.20763126 0.21182758 0.81867218
0.045148373 0.15651354 0.64117062
0.028003857 0.19570211 0.67555213
-0.14091325 -0.19083272 0.82121527
0.021452606 0.19140509 0.67377132
0.16310845 0.18113112 0.74712813
-0.054761738 0.1530588 0.72162724
-0.045760095 0.13978331 0.70887363
0.24020541 0.089699134 0.77386987
0.11831544 0.0027333759 0.75395483
0.047930241 0.19120082 0.66588652
0.062660068 0.20783785 0.71488816
0.10889909 -0.0080008954 0.75155306
-0.020382047 0.051455267 0.74820989
0.067690864 0.059519768 0.71601832
0.1000939 0.12579405 0.65673888
0.092181325 0.14972644 0.66668719
0.13027376 -0.092746191 0.82686621
0.22143871 0.18004397 0.80437922
-0.041250944 0.0070816427 0.78637028
0.20778558 0.20714638 0.81151903
0.16178516 -0.052960381 0.82705742
0.1666598 -0.05522177 0.84859109
-0.017241299 0.14877763 0.68139368
0.12404478 -0.30009425 0.90991259
-0.0019156337 -0.2795465 0.86022031
0.24167469 0.073928282 0.80653399
-0.11415336 -0.15317386 0.86268377
0.13593915 -0.16061586 0.90798736
0.10668138 -0.00087879598 0.75496602
-0.013968825 0.061596937 0.73982501
0.0066583455 0.10377295 0.70388681
0.11755686 -0.017731033 0.75469768
0.15436509 -0.41659781 0.93158692
-0.037762374 -0.42081967 0.85425973
0.11636904 -0.28360417 0.91597062
0.22159547 0.056124561 0.79789734
0.015172422 0.10979629 0.71107644
0.029885262 0.15241042 0.65356076
0.039091527 0.16438302 0.65002376
0.0062534213 0.11439 0.66863793
0.0056791306 0.11198153 0.67498344
0.0069642961 0.11142512 0.68088752
0.0079462528 0.1101359 0.69012153
0.011551917 0.1109505 0.695759
0.01186648 0.11078589 0.7044096
-0.022721648 -0.24584445 0.87304854
0.045550108 0.069899991 0.71448171
0.12443899 -0.027804792 0.76157159
0.15868139 -0.052865345 0.82065594
0.15378854 -0.090542994 0.91167796
0.073260009 0.12540579 0.66832733
0.084633023 0.028396949 0.75290656
0.2370396 0.068671003 0.80542028
0.14529955 -0.42570457 0.92430842
0.066597313 0.20497897 0.71487123
0.16829941 -0.055258892 0.85523969
0.010904908 -0.31101722 0.82325822
-0.024348199 -0.26742256 0.80394471
0.089567512 0.20030269 0.7157225
0.10320346 -0.36854658 0.88468754
0.15063256 0.15727425 0.72370487
0.11354329 -0.087832779 0.7989583
-0.07570982 -0.15477329 0.88845223
-0.05947125 -0.18854704 0.8495006
-0.020122051 -0.12072631 0.86929297
-0.029061913 -0.14099872 0.88610953
-0.040270984 -0.15925115 0.90091985
0.20457307 0.19472054 0.79654741
0.21354714 0.18693955 0.80321038
0.25731403 0.040435128 0.91861266
0.092128724 0.19885129 0.71264362
0.057508782 -0.066034421 0.75725913
8.0883503e-05 -0.065087967 0.78664136
0.16763869 -0.055335771 0.86907339
-0.024987131 -0.26784289 0.78610253
0.24634039 0.16765493 0.81203687
0.13487765 0.19272843 0.72616565
0.12917963 0.18341731 0.7155903
0.045147091 -0.089260407 0.76629823
0.024274781 -0.11602949 0.79092795
0.038683087 -0.11682087 0.78448474
0.16966736 0.19922876 0.75866449
0.17297322 -0.034013234 0.92494416
0.018134996 0.075696796 0.72274113
0.21467125 0.13849939 0.75781536
0.19207075 0.17224702 0.7546134
0.20702288 0.14226934 0.73025501
0.17462465 0.19650397 0.75747305
0.0574947 -0.049445938 0.73464417
0.13873354 -0.068862535 0.80328441
0.13635412 -0.17970966 0.98157734
0.064149261 0.16081601 0.65624207
0.084292457 -0.28375888 0.8913635
0.14193958 -0.19277497 1.028825
0.22530809 0.12979533 0.77583861
0.091799229 -0.29358065 0.89733189
0.18674399 0.17627525 0.75445271
0.087615892 -0.011896029 0.75371611
0.22266537 0.13958897 0.77961719
0.17688431 0.1943891 0.75691259
0.18151651 0.19569346 0.76654196
-0.025287926 -0.23882322 0.86439866
0.20371893 0.18072668 0.77299351
-0.031179041 -0.28019875 0.82108623
0.18962386 0.19353354 0.76776254
0.11008863 -0.022572748 0.75728297
0.186928 0.20807806 0.79652905
0.18614399 -0.2669937 1.0263803
0.096194893 0.14056832 0.66762167
0.079472825 0.16040009 0.66031182
-0.045146406 -0.27850538 0.77419192
-0.048262596 0.057828873 0.77218586
-0.084794819 0.095720991 0.75003386
-0.088265777 0.10332663 0.74854189
0.10256305 0.058923975 0.72212118
0.18734291 0.20632479 0.79755288
0.17124189 0.15846384 0.73729175
0.0015797615 0.11587481 0.67367303
0.0075900853 0.11472946 0.66990864
0.11707255 -0.0076195337 0.75613844
-0.021104336 0.062373914 0.74719346
0.0666942 0.049426608 0.71353966
-0.0061035454 0.13565321 0.67404097
0.12864721 -0.29067215 0.92160153
0.14990437 -0.084744021 0.90282208
-0.0099728703 -0.12086952 0.84581357
0.04585138 0.079840273 0.71592593
0.13435546 -0.026178956 0.76517522
0.25206846 0.078718215 0.81560606
0.077862248 0.19974065 0.71438813
0.26826197 0.11637373 0.83872974
0.003968358 0.12133031 0.66365612
0.021112978 0.14668269 0.66169399
0.19720137 0.20484346 0.80046147
0.21924499 0.18579593 0.81085461
0.27000821 0.12097254 0.84340113
0.20032153 0.20549905 0.8035959
-0.097187608 0.11021918 0.75621361
-0.057921469 0.15129326 0.71459812
0.027180403 -0.055286184 0.73915851
0.22053605 0.19100079 0.8096295
0.26771045 0.12129131 0.84455311
0.18600804 -0.38313252 0.9572916
0.20145959 0.20543939 0.80567157
-0.0077648461 -0.30933398 0.81706023
0.25808692 0.039494246 0.90015417
0.098424166 -0.25363344 0.92656422
0.18749228 -0.37276554 0.95693016
0.20704284 0.20347774 0.80372494
0.18716797 -0.36630154 0.95983505
0.16545254 -0.053088274 0.84029704
0.26243937 0.041291647 0.91104877
-0.0032097101 0.12243667 0.6710186
0.041039944 0.20728311 0.70213628
0.040183067 0.20726579 0.70501685
0.16808981 -0.24230424 1.040673
-0.10016358 0.11662625 0.76034671
0.13997224 0.11128767 0.6954031
0.14974126 -0.16556054 0.95368302
0.13782808 -0.18615602 0.97084421
0.069866255 -0.28379434 0.88415205
0.16697741 0.11184238 0.68438721
0.18729095 0.14647555 0.72132087
-0.070356011 -0.29193771 0.81017685
0.22128627 0.15481009 0.76403403
0.16027236 0.19660649 0.75198311
0.10182098 0.0025274903 0.75360012
0.12047371 0.11328132 0.6981352
0.1706692 0.18796201 0.75399393
0.08908309 -0.31482193 0.8678571
0.16803125 0.19798139 0.75885916
0.057054907 0.1859661 0.67003858
0.039128751 0.16699035 0.65837514
0.15685128 0.092680231 0.69142461
0.22453937 0.15095806 0.76895297
0.18598698 0.12548085 0.70267987
0.060520351 0.14049697 0.66997659
-0.04164359 0.14272524 0.70056844
0.15481132 0.093312979 0.68537629
-0.034794688 -0.2254279 0.87163633
-0.088910222 -0.26702821 0.80049711
0.16396509 0.1919328 0.75700808
-0.11775103 -0.15846036 0.84916002
0.11537325 -0.35142651 0.89360309
0.12122244 0.067467213 0.7336446
0.14589137 -0.082910426 0.84887958
0.21097872 0.17180073 0.77611899
0.065131411 0.19169977 0.68968576
0.040288061 0.21029934 0.71209002
0.003598392 0.10472992 0.71001053
0.025740296 0.10620634 0.70531213
-0.035820007 0.16032487 0.6852749
0.1214285 -0.012548998 0.75629169
0.068015113 0.17475863 0.67023933
-0.013847023 0.15201931 0.68100673
0.177398 -0.26773643 1.0096183
-0.011240214 0.15706825 0.67838669
0.12376104 -0.0075273514 0.75450373
0.19181228 0.054173104 0.82775861
0.19186625 0.19180048 0.76804698
-0.0075477958 -0.094975345 0.81834286
0.0069157779 -0.31087673 0.82088345
0.084152177 0.19944799 0.71413749
0.115558 0.17382851 0.69790113
0.1070682 0.19595391 0.71282661
0.042052448 0.040226817 0.71995252
-0.039414883 0.0065052286 0.78785747
0.098224267 0.0034060962 0.75241733
0.070840627 0.036142312 0.73431617
0.20941278 0.20519438 0.80789834
0.21876794 0.19312799 0.8094337
-0.021098316 0.14766911 0.68365675
0.16755825 -0.055975191 0.85823274
0.065425619 0.19977564 0.70811653
0.2139779 0.16909286 0.76354718
-0.063991636 -0.25097167 0.76871657
-0.020247608 -0.26501626 0.85057509
-0.057923496 -0.24236065 0.7598455
0.10550867 -0.0070121773 0.75268489
-0.017963499 0.051072948 0.75065106
0.20436543 0.17838097 0.76057899
-0.044359535 -0.0043490864 0.79516059
0.21602899 0.1796893 0.78850621
0.13009447 -0.037916038 0.77011955
0.20700717 0.20215136 0.80370641
-0.005279094 0.17668968 0.68298864
0.021992862 0.17779261 0.67082185
0.19867149 0.15309282 0.73267764
0.05786413 0.15601176 0.64623284
0.039241076 0.19598499 0.68392998
0.079575375 0.14535105 0.65919542
0.076680362 0.1896898 0.69323671
-0.018527329 0.13910751 0.68191117
0.17150134 -0.37235761 0.93870258
0.26471743 0.1181891 0.82570505
0.1889461 -0.26349103 1.0315697
0.06965147 0.03693857 0.74339581
0.083462715 0.15003744 0.66121596
0.084639728 0.018095411 0.75309533
0.057637066 0.20537257 0.71289992
0.20513734 0.070612356 0.76753712
0.097111374 0.19716245 0.71200979
0.21334851 0.033357345 0.8911733
0.21097749 0.059174277 0.81361794
0.10437399 0.19279376 0.70718735
0.0033268929 -0.29495737 0.82891637
-0.030438602 -0.27033129 0.76986456
0.26218674 0.046515904 0.9159745
0.21170497 0.096016228 0.74747968
0.14691946 0.1921519 0.73671865
0.21005681 0.10631301 0.74978369
0.17930532 -0.22873309 1.0580857
-0.068233162 0.15649547 0.73762697
-0.11209232 -0.33373767 0.9189558
0.21398285 -0.25019088 1.0416563
0.05494085 0.16113025 0.65147984
0.035744324 0.18737185 0.6744386
-0.037714958 -0.21124113 0.85164404
0.17802615 0.17721283 0.74931586
0.01120159 0.076303869 0.72585171
0.024690792 0.076136708 0.72089195
0.18173288 0.19572994 0.76352054
0.18392292 0.19702557 0.7696026
-0.089337796 -0.24791816 0.79972643
0.16758639 -0.37423176 0.93652499
0.19711024 0.20308357 0.79507041
-0.0037160218 -0.30560678 0.81961334
0.15381858 -0.095940098 0.9104501
0.061506271 0.18556818 0.67269206
-0.028609663 0.16280085 0.67987269
0.21928871 0.1844309 0.80872822
0.27004072 0.12195496 0.83741051
0.20378023 0.20284265 0.79947025
-0.075108379 -0.39016688 0.9004817
0.055899724 0.14031452 0.66965759
-0.038779408 0.14338583 0.69690746
0.12601307 -0.1310447 0.89020592
0.21927449 0.18911052 0.8110075
0.10792826 0.15930144 0.68035293
0.17761174 0.023774281 0.81371558
0.08183834 0.2008999 0.71670502
0.13760647 -0.28252938 0.93890846
-0.08424136 0.12810232 0.74722439
0.15260011 0.1515687 0.72349459
0.1195462 0.12215245 0.68790829
0.023687541 -0.02513722 0.74178398
0.10329777 -0.11066388 0.82582092
0.12211779 0.12346606 0.6939736
0.037055805 0.030028969 0.72770035
0.16712117 -0.31690738 0.93512797
-0.00094151497 0.015258037 0.76380163
-0.024616927 -0.080429882 0.82376647
0.1023362 -0.083027564 0.78717887
0.21567392 0.19882554 0.80752099
0.19886151 0.063701458 0.76949251
0.16148251 -0.25774825 1.0100515
0.10697207 0.15287508 0.67750114
0.091631293 0.19400704 0.71138459
0.013361394 0.13186523 0.66212088
-0.006228745 0.13034828 0.67152953
-0.15072319 -0.14704719 0.90876108
-0.082810998 -0.14489849 0.90235388
-0.071576357 -0.18350603 0.84646946
0.0080081522 -0.38069358 0.80948412
0.0043050051 -0.38605347 0.81276506
-0.015362918 -0.12146942 0.86528373
-0.030793548 -0.14582168 0.88641489
-0.039867282 -0.16086316 0.89973444
0.032478139 0.036977001 0.72514009
0.12510373 0.13382672 0.67938757
-0.046580851 0.066875815 0.7808336
-0.048505932 0.07402055 0.78414112
0.11248414 -0.11011939 0.85368097
0.045399651 0.10291398 0.68856061
0.09582606 0.19592711 0.71160543
-0.092276484 0.12804051 0.75749272
0.12568554 0.12329262 0.69765168
0.043794036 -0.045616254 0.72158533
0.17660759 0.19021122 0.75501192
0.1382163 0.11269011 0.69828987
0.048407242 0.10036542 0.71018142
0.18596892 0.14807516 0.72508311
0.043355376 0.19100586 0.66380179
-0.059225559 0.078597978 0.78111947
0.11726855 0.074258432 0.73115647
0.041283727 0.099940717 0.71303308
0.21307123 0.1700677 0.77326167
0.10013938 0.041829184 0.72755778
0.075228661 0.15721145 0.65611184
0.092099562 0.0030127876 0.7575416
0.067768797 0.034402154 0.74431336
-0.089654416 0.093031168 0.74968922
0.13822438 -0.053617615 0.78611839
0.082379192 0.14528385 0.66254079
0.10529681 0.028208584 0.7377584
0.11987995 -0.095099747 0.81806201
0.12833486 -0.0076689757 0.75583643
0.10293266 0.023483023 0.74139637
0.095607564 0.033218488 0.73995721
-0.081420004 0.093560979 0.74819994
0.0087350905 0.08125031 0.72900277
0.080043331 0.15043539 0.65822464
-0.0079419315 0.15705378 0.67708862
0.092396274 0.13526164 0.66664523
0.1365242 -0.016491018 0.76176184
0.062968925 0.07914941 0.711748
0.095094576 0.0072299615 0.75370371
0.15690497 -0.063421562 0.83116764
0.20512173 0.18076044 0.76788795
0.04056114 0.20753953 0.71067566
0.084654629 0.013537101 0.75529641
0.02195406 0.10955514 0.70298898
-0.021954834 0.026333846 0.7760883
-0.036283046 0.16030632 0.68748891
-0.046797097 -0.41953233 0.86555314
0.022062004 0.090694115 0.72124308
0.011797965 0.1030823 0.71483511
0.09222354 0.02838704 0.74196994
-0.014700592 0.07172884 0.7434985
0.12621677 -0.014699895 0.75852352
0.19351596 0.1896299 0.76406538
0.029822886 0.13532755 0.65418339
0.19846863 0.059901953 0.81167519
0.11565201 -0.12914971 0.87443584
-0.03203845 0.0052899942 0.78210175
0.091966525 0.16111588 0.67501551
0.12222138 -0.037600845 0.76558352
0.2402516 0.04254581 0.90595055
0.13171859 0.11309129 0.70526403
-0.11077169 -0.17295 0.8354724
0.072777435 0.14046696 0.66716224
0.073492453 0.19998923 0.71381372
0.14817686 0.090731367 0.7035774
-0.068109989 -0.40500259 0.8876785
0.19329582 0.14987917 0.72572154
0.17513573 0.19355032 0.75687069
-0.10032696 -0.34028554 0.91543174
0.18456548 0.19772217 0.77420914
0.13872322 -0.078967944 0.81536341
-0.044965416 -0.1999739 0.84426928
0.030976519 -0.41655135 0.82342464
0.067851961 0.14748386 0.64891994
0.063738361 -0.37289262 0.84785742
0.066078722 -0.12827589 0.79681569
0.20013404 0.15522082 0.73915833
0.026893765 -0.41185027 0.82162064
0.14239135 0.076419145 0.74410069
0.00072735548 -0.1982111 0.87886453
0.070174888 -0.25935572 0.90404069
0.12418079 -0.35511926 0.90399075
0.063358441 0.15097153 0.6464678
-0.061164021 -0.14489812 0.92307073
0.21601939 0.19284725 0.80789495
0.20928782 0.20169508 0.80411637
-0.0078348517 0.18276808 0.68470865
0.025105849 0.18343852 0.67217964
-0.13318205 -0.1716547 0.83336461
0.10692692 -0.19865783 0.90563834
0.099429637 -0.21565168 0.91596437
0.20594785 0.14821228 0.73409128
0.14768845 -0.073621973 0.82069182
0.16587408 0.10005529 0.71070814
0.19433659 0.15480626 0.73016602
-0.071125031 0.078621313 0.79973125
0.13313113 0.07259497 0.7419039
0.034059897 0.19232556 0.67742825
0.042170197 0.20096067 0.68671095
-0.00039756298 0.16211496 0.67697543
0.08786273 0.18246712 0.69244009
-0.088873595 0.088072851 0.76977229
0.049519509 0.20026648 0.69445431
0.15807527 -0.070195124 0.85317624
0.053898513 0.19972831 0.69682896
-0.022914112 -0.12596135 0.88298851
0.044248924 -0.17788345 0.88594913
0.070586562 -0.17820835 0.87980366
0.10272448 -0.18468344 0.89598829
0.093691811 -0.19523862 0.88970375
0.025873825 -0.19730416 0.87548566
0.088154092 -0.19979165 0.88797277
0.041293383 -0.21785875 0.8788293
0.0782291 -0.22012953 0.9051398
0.044793978 -0.22259915 0.87998527
0.061573729 -0.23812725 0.89556563
0.055190086 -0.2393617 0.8839491
0.058156431 -0.23852567 0.88871056
0.012752801 -0.050018642 0.75592053
0.14262351 -0.13539854 0.90724641
0.10527819 0.057682157 0.72071344
0.016462982 -0.050647721 0.75442636
0.057768047 0.19997209 0.69964182
0.098570034 -0.0071823001 0.75372124
0.02442044 -0.061779115 0.76724881
0.029974028 -0.06188162 0.76326317
0.0060684681 0.1053708 0.70393771
0.022027209 0.10629568 0.70141745
0.018941551 -0.070463382 0.77457368
0.21101257 0.17306015 0.77613664
0.2533876 0.057455435 0.9064675
0.26601771 0.057953618 0.90465581
0.06135191 0.20021701 0.70299149
0.013241291 -0.039507352 0.75459224
0.065436929 0.17962897 0.67132455
0.16841441 -0.055316202 0.86618632
0.14511988 -0.10026419 0.90572482
0.13092279 -0.098251268 0.85002565
0.16781193 -0.12582657 0.91464609
0.25993738 0.042476475 0.91483265
0.087283909 0.19706637 0.71194983
0.0022350252 -0.062849924 0.7826466
0.053740174 -0.066631928 0.75729507
0.20047817 0.065466426 0.76566255
0.15530229 -0.075938798 0.88208365
0.094748542 0.19393268 0.70970786
0.19145608 -0.037509717 0.96647441
0.14768399 0.15236057 0.72082114
0.13836095 0.13262761 0.70720458
-0.0031634867 0.13203885 0.67087632
-0.14884543 -0.14747283 0.90976137
0.15236187 -0.079698667 0.88481003
0.16632691 -0.31640494 0.93585062
0.17707446 -0.0096776523 0.8272925
-0.028202921 -0.079621926 0.82889557
0.10690004 -0.083109424 0.78776312
0.10441759 0.17413583 0.68876654
0.21986535 0.19829413 0.80991775
-0.0037693977 -0.42996803 0.82036763
0.15323687 -0.013107985 0.77158064
0.13876653 -0.23108095 0.9951458
-0.063137472 -0.32898635 0.8570978
-0.068356842 -0.32464787 0.85972351
-0.071721911 -0.31967375 0.8550536
0.21392894 0.032581359 0.89310485
0.10154288 0.19285363 0.70834804
0.16498363 -0.081654653 0.98262644
0.0074250698 -0.29480958 0.83078462
-0.032448858 -0.27381217 0.77074254
-0.031606674 -0.26702023 0.7672804
0.25828943 0.045234874 0.92206031
0.15608823 -0.07110294 0.86716664
0.15114808 -0.25136644 0.99903536
0.10506359 0.18960316 0.70551842
0.10396355 0.18865561 0.70299298
0.16143107 -0.13525017 0.91984385
0.14920592 -0.24724606 0.99837101
0.10731044 0.18878916 0.7041769
0.10154778 0.18921666 0.70514667
0.16464975 -0.12774982 0.90645242
0.15643635 -0.14613068 0.92561305
0.15093875 -0.15588862 0.93277162
0.11167362 0.18903267 0.70598936
0.0039208829 0.040710136 0.73299938
0.033260137 0.040367149 0.72395384
0.12813666 0.18781748 0.7164377
0.16961706 0.19218639 0.75562489
-0.075345367 0.088070437 0.7519716
0.14914969 0.09270066 0.69217664
0.095677137 -0.001646027 0.7542938
-0.05340606 0.091181397 0.74782032
0.19150925 0.13686354 0.71533573
0.18399918 0.1899592 0.75881875
-0.039275855 -0.21418674 0.85973442
-0.047256589 0.092085004 0.74864626
0.086045071 0.088888153 0.71193624
0.19995993 0.15086555 0.72879303
0.18411186 0.19169915 0.76259327
0.058954477 -0.040663503 0.73817199
0.014941394 -0.1862603 0.87434268
0.068116426 -0.24897589 0.90398657
0.10493891 -0.12286986 0.8787179
-0.1396262 -0.1855503 0.82253093
0.041689277 0.19508016 0.67440122
0.12267891 0.11365829 0.70177644
-0.049226344 0.066902533 0.78400534
-0.045262158 0.076599449 0.77264392
-0.042926252 0.08014442 0.77156311
0.22805142 0.070528582 0.8916527
0.12421654 0.1311333 0.68389064
-0.086684108 0.13821027 0.74360305
0.22358179 0.066862047 0.88900703
0.18148538 0.080692247 0.76248646
0.10422073 0.15331884 0.67552906
0.086581916 0.19325814 0.71032989
0.19882721 0.062425055 0.76947463
0.21556115 -0.25902313 1.0476437
0.1426461 -0.36950028 0.91286463
0.11843434 -0.32468468 0.88696718
0.21372345 0.15044782 0.75770992
0.22415212 0.13562304 0.76526576
0.25132713 0.10393062 0.80725181
0.038697556 -0.080759563 0.77039796
0.13555598 -0.34417003 0.89728087
0.20642272 0.14943728 0.73207635
0.18757072 0.19067553 0.76510876
0.057517871 -0.040677566 0.73514652
0.15763491 -0.14121597 0.92206359
0.1982688 0.19751865 0.78858364
0.1276993 0.17259558 0.70855522
0.14072588 -0.27138662 0.95481038
-0.024095267 0.076839551 0.75550997
-0.089035988 0.079844028 0.80224258
0.027750254 0.19220027 0.67133838
0.032515809 -0.10091281 0.78634059
0.21089771 -0.27144307 1.0281029
0.17285484 0.11681496 0.69451857
0.1743366 0.11726712 0.70153672
0.068021566 0.13534129 0.67031646
0.050314382 0.14601816 0.63986593
-0.017016858 0.10509792 0.74288952
-0.016141236 -0.34054241 0.84179789
0.16654749 0.10731784 0.69439381
0.18805324 0.1307496 0.71047646
0.17665312 0.18112804 0.75106657
0.17051931 0.11233246 0.69817579
0.0480735 0.19120041 0.67600197
0.18262744 -0.28544211 0.97374797
0.18093519 0.14397924 0.71967524
0.18157655 0.1467426 0.72243822
-0.011503637 -0.0041378848 0.76964962
0.089371532 -0.036890585 0.76028281
-0.029154241 -0.034535028 0.79569519
0.25840688 0.15834828 0.8235504
0.053304538 0.1909 0.67755377
0.081901997 0.03910283 0.72199732
0.020379201 0.15176535 0.66072303
0.057049736 0.19089311 0.68071449
-0.029521048 0.043091074 0.75806713
0.076812014 0.038229458 0.72791004
0.15323608 -0.043813791 0.8003577
0.060987145 0.19074048 0.68405515
-0.016382277 0.15812653 0.6800586
0.16246209 -0.044601675 0.82305187
0.092080191 0.14491162 0.66656923
0.063431084 0.19139898 0.68706638
0.086927161 0.033837698 0.74498224
-0.010441124 0.14742278 0.67928553
0.076117903 0.17492571 0.67740309
0.067568079 0.19400653 0.6933158
-0.026294827 -0.12544356 0.88751191
-0.035523474 0.026184052 0.78447312
0.22833899 0.017707184 0.88782471
0.094765529 0.023775429 0.74941397
0.092283219 0.15273602 0.66669184
0.071954846 0.19515994 0.70319194
0.095021844 0.17591962 0.68487436
0.072381526 0.19512212 0.70507324
0.12566501 -0.12474357 0.88728476
0.088892788 -0.16424474 0.86736166
0.078590274 -0.18241762 0.88310933
0.083796442 -0.18876344 0.88575381
0.084750593 -0.23911071 0.92201793
0.13360819 -0.15077284 0.90235204
-0.0039284825 -0.31037706 0.81731147
0.25545529 0.038090348 0.90329629
0.075209528 0.19742572 0.70953798
-0.078304529 -0.39653277 0.90097034
0.21639028 0.18554448 0.80814362
0.13423426 0.11772197 0.70539558
0.038289592 -0.36243543 0.83352774
0.042738661 -0.36219952 0.83821696
0.11791432 -0.28996861 0.91154063
0.12692016 -0.28614104 0.92720264
-0.056087554 -0.25239009 0.762954
-0.059457481 -0.2480607 0.76482165
0.11345071 -0.0022398755 0.75271797
-0.023105621 0.055596516 0.74962831
0.21453342 0.18893486 0.80621892
-0.083214849 -0.19928531 0.81194246
-0.077981472 -0.20359285 0.80564898
-0.07720077 -0.20637575 0.80040675
0.13827589 -0.14529301 0.90558571
0.12251797 -0.12969193 0.88325846
-0.14273483 -0.1523422 0.86609614
-0.085190147 -0.20300977 0.80678427
-0.089929998 0.12156945 0.74927676
0.055327952 0.0187774 0.73580265
-0.024799138 -0.27370697 0.81563663
0.19565856 0.061481416 0.77435791
-0.01069051 -0.22563167 0.77616948
0.24374151 0.072323874 0.87792701
0.17957968 0.078989163 0.765311
0.084414393 0.19469228 0.71266991
0.13292626 0.18615966 0.71874893
0.15239297 0.18995748 0.73710161
-0.067254722 0.14303921 0.7290374
-0.070297062 -0.3699612 0.8927148
0.12484872 -0.3105534 0.90789592
0.11107978 -0.2954067 0.90176892
0.20249674 0.19043875 0.77951127
0.18941712 0.050029695 0.82439095
0.045215219 0.060605437 0.71450341
0.11534323 -0.15164503 0.88488919
-0.013196945 0.071705446 0.74228209
-0.017664373 0.081470788 0.74915564
0.23504335 0.065769449 0.79190594
0.22134688 0.16992874 0.78880429
0.19943738 0.19313902 0.77716851
-0.080020726 -0.20830828 0.78878999
0.036043182 0.13149583 0.65309638
0.21040267 0.14320774 0.74577588
0.10992861 -0.31426749 0.89412665
0.06370616 0.02945096 0.74574906
-0.078078181 0.12330815 0.74317586
0.20019072 0.19494227 0.78447986
-0.03840965 0.051716149 0.75447571
0.0066027343 0.10779309 0.69346893
0.036383063 0.15066591 0.65113705
0.13678354 -0.19183256 0.99635386
-0.066627473 -0.36517248 0.88698703
0.13075063 -0.31139717 0.90788019
0.030874372 0.15700869 0.64993566
0.21001706 0.18749903 0.79246551
0.079302236 0.19635379 0.71328974
-0.010640979 0.13724321 0.67744684
0.094629139 0.059860379 0.72271019
0.21759361 0.13729689 0.7499851
0.21158868 0.12339711 0.74275094
0.16753602 -0.051702555 0.85722685
0.19606471 -0.26997197 1.0158243
0.13457826 -0.32036108 0.89972937
0.093439236 0.053930692 0.7199195
-0.017950088 -0.11691142 0.8556093
0.13810223 -0.19669747 0.99344134
0.19216448 -0.24863055 1.0560683
0.048091233 0.13538575 0.66103613
0.1943922 -0.25986499 1.0421647
0.086548641 0.17413923 0.67889053
0.14652383 -0.079815306 0.84168446
0.18826345 0.06295725 0.76561052
0.11493938 0.18358965 0.70139879
0.11742119 0.18361875 0.70455915
0.068906903 0.11574027 0.66540265
0.20822227 0.19438264 0.80095446
0.034976155 0.19238105 0.67156082
-0.01415956 0.14706972 0.68105924
0.066406459 0.19201937 0.6917758
0.10696718 0.18620183 0.70091701
0.15022755 -0.13950562 0.92009747
0.14447233 -0.16068643 0.93830055
0.22977605 0.040098369 0.93744898
-0.045303226 -0.17941232 0.89871472
-0.042384088 -0.1839243 0.89496046
0.10969585 0.18575019 0.70056814
-0.10791352 -0.14806154 0.88314372
0.0028477311 0.16173939 0.67448831
0.0093141794 0.16319121 0.67199326
-0.040785611 -0.1756891 0.89686346
0.21123114 0.07340017 0.7675882
0.12219092 0.18380184 0.70947725
0.15919428 0.18674314 0.74475396
0.17627324 0.18666184 0.75456369
0.23260859 0.11425956 0.78208721
0.19900879 0.18564481 0.76518321
-0.088038027 -0.26749375 0.80749243
0.049155831 0.15596484 0.64165473
0.028607011 0.19500375 0.67839599
0.21570492 0.1494153 0.76469773
0.048557162 0.18066053 0.66571456
0.20270023 0.15079518 0.73441792
0.053349644 0.15649959 0.64478296
-0.0085015595 0.18073437 0.68175763
0.021213651 0.18235965 0.67174917
0.033512533 0.19437501 0.67787141
0.13746461 0.0070218071 0.75938237
0.033065528 0.18654878 0.67427123
0.15191348 -0.056821685 0.81046605
-0.11197662 -0.33796033 0.9234283
0.13405892 0.022281721 0.75828338
-0.051762193 0.089684784 0.76645195
0.098613828 0.087606415 0.71961033
0.046578988 0.18590109 0.66971755
0.052606136 0.1861175 0.6677686
0.06509009 0.18543608 0.67524445
-0.031111151 -0.28722242 0.81791461
0.039971545 -0.075459138 0.7591635
-0.091377586 0.10661381 0.74975294
0.21074256 -0.033126868 0.97439826
0.1663712 0.14394224 0.72362989
0.053346261 -0.36258012 0.84724802
0.12008744 -0.3007392 0.90719885
0.12919369 0.10603738 0.70944595
0.13283503 0.10396245 0.70595378
-0.0039017797 -0.12092619 0.83820373
0.087202117 -0.12231089 0.81361598
0.11673889 -0.26613241 0.93457246
0.050557584 -0.36708656 0.84291428
0.18125601 0.15700683 0.73366421
0.15554082 -0.054169625 0.81737447
-0.10448104 -0.1679849 0.84441292
-0.095308483 -0.18682055 0.82644284
-0.046045274 -0.41079712 0.86509621
0.17094669 0.14845754 0.72697455
0.12422399 -0.083914317 0.80326831
0.073947847 0.13031818 0.66778243
-0.026780069 -0.27101141 0.86393285
0.067192957 0.054284833 0.71658283
0.069375455 0.18601441 0.68001586
0.10318668 0.12483305 0.65548497
0.16100571 -0.06566374 0.89433086
0.072806388 0.18625683 0.68333948
0.077452436 0.18047948 0.68497181
-0.027963698 -0.31463873 0.81435126
-0.031650037 -0.30839521 0.81109554
0.074702114 0.18855718 0.68660831
-0.11968493 -0.19220321 0.80623883
-0.091932327 -0.20730302 0.78831029
0.22190705 0.17522778 0.80204839
0.13539807 0.09667854 0.70714784
0.075774163 0.18923458 0.69083178
0.26367614 0.11217475 0.86147332
0.16022998 -0.068177477 0.8602773
0.17049482 -0.34093577 0.93210387
0.097241431 0.18897747 0.70463359
-0.042980671 -0.19400443 0.89328349
0.10182315 0.1852489 0.69961131
0.1049601 0.18430275 0.69685423
-0.043300539 -0.20958994 0.81467843
0.23303261 0.042332463 0.93490696
0.12690148 -0.41618076 0.90901786
0.042348236 -0.32789662 0.82895619
-0.023613155 -0.26462716 0.7748735
-0.021333396 -0.25967026 0.77201885
0.11114395 0.18361188 0.69680941
-0.023079276 -0.2674973 0.83242756
-0.018014431 -0.26499689 0.84490311
-0.14183661 -0.20565473 0.8282907
0.11933807 0.13400576 0.66895229
0.12243414 0.18282643 0.7070781
0.13545457 -0.038099617 0.77293885
0.21289995 0.074021891 0.76278126
0.12494978 0.18482085 0.71292919
0.12487105 -0.10530259 0.88123018
0.13231704 -0.22577497 0.96475947
0.13732018 0.18637939 0.72191381
0.18271965 0.11638533 0.70604837
0.16413164 0.032267198 0.79879719
0.16262771 0.031033322 0.79177421
0.18625402 0.11693767 0.70204186
0.16291268 0.073791057 0.74212992
0.14320606 -0.22638993 1.0161408
0.13279113 -0.23074982 0.96360433
0.14191699 0.18583602 0.72459954
-0.021874964 -0.34080625 0.84442806
-0.020461977 0.17310539 0.68446422
0.034974873 0.17202458 0.66771466
-0.11890653 -0.15794306 0.8517307
0.11100626 -0.35126123 0.89018464
0.19000487 0.12533773 0.70518547
0.14480656 -0.084325135 0.84482157
0.16209416 0.19175613 0.75449824
0.19626054 0.18540789 0.76008588
0.20003831 0.18175586 0.76128936
0.15694195 -0.059863843 0.82823235
0.13507122 -0.089496151 0.83333576
0.19917679 0.18568085 0.76228708
-0.007871151 0.012361929 0.7659449
0.060197413 0.009290792 0.74612069
0.12585481 0.10290383 0.72043777
0.11531736 0.11601153 0.67066932
0.19627306 0.18188982 0.75895053
-0.00224033 0.1180965 0.67081416
0.0090329051 0.11563425 0.66639721
0.15623426 -0.085905373 0.91230559
0.21985078 0.17938776 0.79320109
0.20386207 0.19362843 0.78637886
0.005341053 0.12203704 0.66342121
0.00059580803 0.12181538 0.66664147
0.20466536 0.19475818 0.79368001
0.21387359 0.18697695 0.79991239
0.12940139 -0.23000683 0.95706153
0.14235951 0.18303242 0.7269178
-0.016416013 -0.26062304 0.84813726
0.12267306 0.13359796 0.67209572
0.18857148 0.075300291 0.76670635
0.12463488 0.18310274 0.71019888
0.25272366 0.043671384 0.9175117
-0.020183444 -0.12067778 0.86594516
-0.043755651 -0.16080624 0.90313524
0.21575353 0.074983329 0.7603026
0.13227677 -0.21103352 0.99544245
0.18100521 -0.35833317 0.9593271
-0.026296765 -0.27216041 0.8411051
0.20305401 0.19228691 0.79042506
-0.0062566102 -0.23050278 0.80909079
-0.011101246 -0.24207385 0.81901908
0.15563272 0.15337214 0.72884679
0.22762805 0.19353038 0.81748545
-0.0046028495 0.14216693 0.67582339
-0.078416437 -0.22294344 0.77259248
-0.085218787 -0.23284772 0.7821334
-0.056564629 -0.41966969 0.87053752
-0.0098587871 -0.13602751 0.87375045
0.12698546 -0.14065614 0.89334267
0.13067132 -0.14477511 0.89684582
0.065770268 -0.0061989166 0.74446565
0.1373589 0.021736845 0.76192313
0.15545973 0.084647447 0.7131815
0.15744308 0.087113395 0.70981508
0.091700882 -0.036335632 0.75919008
-0.030290902 -0.03223861 0.7959938
0.16750275 0.18188807 0.74900907
-0.045813799 0.091022253 0.76590282
0.13672243 0.040273137 0.74615514
0.044643164 0.1507737 0.6401546
0.025797665 0.19114754 0.67596394
0.12960964 0.030470699 0.75659251
-0.049280733 0.086718097 0.77135611
0.097557202 0.09425801 0.70395195
0.10378353 0.094083533 0.7025997
-0.018262923 -0.16147578 0.87728208
0.15213539 0.092598766 0.68814909
0.044818357 -0.37751532 0.83349407
0.047327772 -0.3722932 0.8366999
0.091195941 -0.29589826 0.88587934
0.16274664 0.16194497 0.73777348
0.17466918 0.16191444 0.73549497
0.1668227 0.16746934 0.73989183
0.15899204 0.094683573 0.68692732
-0.037576854 -0.22070628 0.87244582
-0.074608952 -0.23324332 0.76915145
-0.076847821 -0.2374088 0.77470547
-0.077508718 -0.23776418 0.77741987
0.01398024 -0.41626096 0.81266731
0.0058572292 -0.41595897 0.81212533
0.0093060136 -0.41078329 0.81041557
0.084040537 -0.33344841 0.856242
0.18036616 -0.29157197 0.96694458
0.18493041 -0.28655618 0.97672689
0.17908445 0.15114878 0.72671133
0.18319725 0.1270593 0.70419681
-0.0366413 0.11013591 0.75351334
0.12878971 -0.078361809 0.80193597
0.19199166 0.13564238 0.71266627
0.21093208 0.11973523 0.75410247
-0.091700554 -0.26737165 0.80580479
0.027315721 0.19449028 0.67996573
0.076066166 0.040939063 0.71159548
0.16979817 0.14971197 0.72783381
0.21559659 -0.24637516 1.0608534
0.12728198 0.10169379 0.72237623
0.2117362 -0.23454507 1.067934
0.073439687 0.18451218 0.68075514
0.078546971 0.17874271 0.68279684
0.23464245 0.19224894 0.84373587
0.017987341 0.16233596 0.6636166
0.13273126 -0.01649186 0.75895834
0.081425682 0.18382296 0.68885034
0.079846025 0.18521 0.69142556
0.098633826 0.04311794 0.72079039
0.15589961 -0.074518837 0.8526181
0.22065324 0.17422637 0.78930414
0.17987803 -0.36744729 0.94805479
0.015406966 0.11254546 0.65782893
0.16051224 -0.065131791 0.848782
0.081824765 -0.19859654 0.88250774
0.067421272 -0.22359551 0.90284169
-0.02961278 0.0060777515 0.78120363
0.0044974089 0.070276484 0.72876406
0.031709909 0.070262447 0.72010082
0.12281124 -0.038311295 0.76724631
0.0074337125 -0.14408034 0.8664223
0.10273162 -0.26461846 0.92007679
0.19716418 0.059624389 0.80799395
0.08433491 0.18478112 0.69550282
0.081985563 0.18748823 0.69566637
0.267524 0.11254232 0.86398864
0.15751451 -0.071084514 0.86311156
0.09246701 0.18710545 0.70287901
0.095053583 0.18504585 0.70095998
0.092700526 0.18381004 0.69499052
-0.0085174739 -0.088397175 0.8127628
0.080411404 -0.091858625 0.7856195
0.055620745 0.024886183 0.73288405
0.26372755 0.10627988 0.86517471
0.10202281 0.18354523 0.694933
0.23587754 0.042210318 0.9440276
0.035826296 0.10577036 0.67842591
0.20789784 0.0022651777 0.92542624
-0.016872287 0.11428316 0.69823664
0.18264639 -0.036545392 0.95517397
-0.025371253 -0.40024516 0.84217989
0.14556608 -0.01363783 0.76605964
-0.069204628 -0.32892621 0.86445314
-0.074904203 -0.31964344 0.85899985
0.16055048 -0.083583049 0.9926042
0.10453705 0.18161155 0.69266164
0.12679568 -0.42011598 0.90896273
0.037500575 -0.32773429 0.82667023
0.15562475 -0.31790462 0.9237451
-0.02230075 -0.26261583 0.77203619
-0.021704197 -0.26117527 0.77411532
0.10705693 0.18153575 0.69323719
-0.017152339 -0.08483234 0.82225472
-0.077822924 -0.16878253 0.85891217
-0.07269448 -0.17107758 0.85921097
-0.06837672 -0.18759756 0.84065747
-0.052887738 -0.20050456 0.82907194
-0.050393224 -0.20483467 0.82514733
-0.04485029 -0.20952746 0.81862307
-0.015072227 -0.082365021 0.81853336
0.075639814 -0.3683562 0.85999173
-0.043123186 -0.22316527 0.78998017
0.22630325 0.16464624 0.79351288
-0.001409173 -0.050130345 0.78080237
-0.024227083 -0.26466888 0.7790305
-0.020070523 -0.25473422 0.7709707
0.11635783 0.18121618 0.69820249
0.12463583 0.16822033 0.70230818
0.11555909 0.17963244 0.69766527
0.14611572 -0.13579953 0.91145897
0.1607933 -0.29398426 0.94380558
0.14930025 0.137749 0.71742201
0.15236531 0.13886248 0.72111517
0.17050111 0.023716681 0.80418694
0.10003062 -0.052257091 0.76228482
0.012353346 -0.063049853 0.77785432
-0.018621325 -0.24957637 0.77022606
0.11860642 0.18149447 0.70116216
0.17374922 0.13005961 0.70455015
0.15279183 0.18340349 0.73433256
-0.03531003 0.11897516 0.7212888
0.011222363 0.18447259 0.66371119
0.1667534 0.1312031 0.70348084
0.18295455 -0.30790508 0.95873344
0.15790376 0.18221764 0.73732805
0.13056201 -0.21100777 0.9561671
0.20167224 0.11086932 0.7077052
0.013404042 0.18174529 0.66259879
0.025498062 0.19326082 0.67915893
0.26507863 0.086999863 0.88567126
0.20467521 0.1390862 0.72044891
-0.10880676 -0.35046369 0.93146497
0.18644159 0.17926072 0.7564556
0.13877109 -0.18201643 1.0115718
0.15446411 0.056493461 0.77311945
-0.021165371 0.10601267 0.75104672
0.10527518 0.09920162 0.69075024
0.10896996 0.094738513 0.69402152
-0.079819977 -0.19506955 0.83144414
0.10210404 0.18080509 0.69369662
-0.028490186 0.055669516 0.75475383
0.25570843 0.087916657 0.8201766
0.22918674 0.15842704 0.77949667
0.10821098 0.17892769 0.69115382
-0.096762538 -0.15377697 0.87236494
-0.055821776 -0.180409 0.87762642
-0.048918545 -0.22060245 0.79441702
0.19223082 -0.37327021 0.96979797
0.21948874 0.05644016 0.78640372
0.10685542 -0.042405002 0.76150131
0.14634174 -0.14574963 0.91777915
-0.0057425201 0.11222015 0.68572992
0.19640201 0.085833475 0.7417146
0.12754865 0.16821024 0.70472312
0.01405403 -0.06531661 0.77885598
0.17014819 0.011262462 0.795111
0.10662457 0.034064993 0.7283687
0.11943646 0.17813092 0.70135307
0.065129504 0.10635754 0.69004846
-0.12564248 -0.40466344 0.94691706
0.14524885 0.18241194 0.72960103
0.19760261 0.099075124 0.71114522
0.12078626 0.038843907 0.73135036
0.058014527 0.18086141 0.66850805
0.13717401 -0.42610875 0.91761696
0.18270344 -0.36791423 0.95047057
0.16294003 -0.060149722 0.84920901
0.2162005 0.16654873 0.76906478
0.012464419 0.11274874 0.66253722
-0.014881313 0.12740523 0.68033421
0.21517813 0.12551676 0.73773986
0.017750248 -0.060156748 0.76829368
0.035343304 -0.061996564 0.76073408
0.083005786 0.18689305 0.6999895
0.12234686 0.17847237 0.70696396
-0.047439992 0.094089717 0.73836637
0.064662457 0.10789493 0.69010967
0.054023236 -0.035782382 0.73242927
0.14866178 0.1823955 0.7327258
0.22292268 0.15691474 0.77320457
0.04641965 0.16109698 0.64513713
0.14917032 -0.059491567 0.80806303
0.042793453 0.18513867 0.66905886
0.20958641 0.17444204 0.76263785
0.061712652 0.1814671 0.67166579
0.2407034 0.18358162 0.81790417
-0.0081076026 -0.29312384 0.82659996
-0.016895592 -0.28742313 0.82446158
-0.037201583 0.16310833 0.69734609
0.049351677 -0.18021536 0.88885927
0.067518696 -0.17868951 0.88118774
0.040562078 -0.21302025 0.87878489
0.04973641 -0.22296582 0.88324827
0.076415062 0.18253289 0.68299973
0.07455413 0.18101387 0.67937934
0.11825883 -0.31893632 0.89754558
-0.023332179 0.011358552 0.7776193
0.019509852 0.11328873 0.65595603
0.083018258 0.18411691 0.6916638
0.11951768 -0.15911692 0.89641356
0.10156709 -0.26910207 0.91999453
0.0053347349 0.066619813 0.72815591
0.031655893 0.065365769 0.71952105
0.088052154 0.18449113 0.69943088
0.013476372 -0.057115808 0.76981592
-0.089225322 0.090553433 0.76955897
0.14223644 0.08652544 0.73734784
0.094868064 0.1819073 0.69224882
0.24103329 0.043170325 0.93780208
-0.030360162 0.057796843 0.75746137
0.25666124 0.092925608 0.82101774
0.13748074 0.13786636 0.70851368
0.12814471 -0.11968946 0.89340007
0.14768489 -0.040966034 0.79326367
0.096234024 0.17989054 0.69118547
0.25175563 0.1335665 0.79362023
-0.12513086 -0.39977124 0.94872504
0.15642437 -0.34667924 0.9278838
0.14387886 0.18275076 0.72618157
0.13990748 0.17216201 0.7160781
0.16499241 0.13246877 0.70606935
0.15666983 0.1811773 0.73332822
0.030301869 -0.41240981 0.82381731
-0.074214906 0.077204913 0.81057531
0.14313862 0.073160961 0.74521589
0.06574896 0.14554811 0.65209043
0.064217851 -0.12800527 0.7931363
-0.091768861 -0.2536419 0.80690503
0.18553044 0.18090802 0.75773847
0.13701029 0.062461302 0.74639034
0.063560903 0.15188809 0.64778471
0.1393638 -0.073944017 0.81287438
0.19870411 0.15430628 0.73269463
0.19023842 0.18165988 0.75895035
0.23098078 0.10572754 0.77057189
0.23498887 0.099134147 0.77340531
0.24703643 0.084462464 0.79435658
0.19188389 0.18024623 0.7580784
-0.011009395 0.010013655 0.7702691
0.064435482 0.0092391819 0.74888575
0.12704626 0.10293508 0.71506035
0.026192054 0.16051221 0.65371686
0.19828579 0.18047439 0.757357
0.026068181 -0.36696416 0.82467437
-0.066178739 -0.2529451 0.77352363
-0.059162796 -0.23904645 0.75960422
-0.018494308 -0.2621485 0.85289246
-0.09356752 0.11679606 0.75163114
0.20428377 0.18034339 0.76398557
0.15879843 -0.059913885 0.83109993
0.08591634 0.15971479 0.66801667
-0.03645131 0.0057884082 0.78513145
0.070664391 0.036161862 0.73325813
0.035500646 0.14535385 0.66095084
-0.024429709 0.14574333 0.68397212
0.21395868 0.17008407 0.77038789
0.046972364 0.010062791 0.72530866
-0.030699134 0.053481281 0.76108348
-0.0010818243 0.10827629 0.6910761
0.14112897 0.13742393 0.71152765
0.019078016 0.10786048 0.68313688
0.20953587 0.1899398 0.7995618
0.069328815 0.044344336 0.71112019
0.014073476 0.13668202 0.66299701
0.13248463 0.12663059 0.70600301
0.12440354 -0.11971426 0.88449055
-0.15422589 -0.15187019 0.87381327
-0.14931199 -0.15213826 0.86973315
-0.036382765 0.062997304 0.76859206
0.16890545 0.07932964 0.72633296
0.12324181 0.12940405 0.67936277
0.10841243 0.053417481 0.72396392
0.20614874 0.16530859 0.75582409
0.073655367 -0.35859087 0.86410218
-0.084279865 -0.21765316 0.77628797
-0.089645326 -0.22838539 0.78375423
0.15498757 -0.28499937 0.94839704
0.0857898 0.1397242 0.66700304
-0.057031751 -0.41712502 0.87218273
-0.011856556 0.04871548 0.73680824
0.04840219 0.044697359 0.71644211
0.23157695 0.1937505 0.82104993
0.19016501 -0.32779452 0.96705991
0.077403203 0.019547574 0.75344962
0.016373634 0.085798398 0.72712517
0.022159249 0.085836694 0.72321308
0.028454617 0.095361277 0.71775651
-0.022975326 0.066563368 0.75053436
-0.093524784 0.097273946 0.75391734
0.040730283 -0.3521274 0.84032518
0.043117419 -0.35251325 0.84665126
0.13890928 -0.31199071 0.91345549
-0.02923125 -0.27411944 0.77750707
-0.044926763 -0.25918496 0.76322788
0.17355597 0.076633468 0.7219727
0.11074831 0.15133707 0.68470699
0.053024814 -0.070723586 0.75450808
-0.0050628781 -0.090203345 0.81308532
-0.0694125 -0.20549807 0.81151384
-0.06616199 -0.20834945 0.80670559
-0.12125546 -0.22108538 0.8136062
0.00052019954 0.041453168 0.73633552
0.039004534 0.03936702 0.72240365
0.092736691 0.18070266 0.69341868
0.12574622 0.17958412 0.70992291
0.25559816 0.081364095 0.84479499
-0.019141257 0.11881693 0.68861097
0.043375731 0.10504508 0.67993307
0.028093979 -0.33304608 0.82581997
-0.055673122 -0.27431232 0.77731752
-0.053153574 -0.26948977 0.77288389
0.082779542 -0.071115777 0.77290344
0.18204916 -0.341683 0.95306903
0.12673652 0.17840597 0.71192276
0.16516018 -0.014616113 0.79380542
0.17204174 0.18336724 0.75226539
-0.0085001588 0.17743056 0.6851337
0.12222368 0.032198869 0.7482397
0.24409232 0.089150131 0.78739786
0.15668011 -0.38136569 0.9286446
0.18117423 0.18142338 0.75594622
0.23584732 0.10937858 0.77577776
-0.058547378 -0.14341354 0.92648613
0.085470706 0.12145522 0.65722549
0.11453605 -0.086998135 0.79596144
0.10896672 -0.097943798 0.80541462
0.10100287 -0.1053105 0.80979711
0.098913506 0.11967878 0.65310681
-0.017012477 0.12184341 0.68458962
0.24201569 0.16283257 0.79762876
0.10270554 -0.10700049 0.81304455
0.097220629 0.11496268 0.65563887
0.18156826 -0.34709704 0.95874804
0.12986377 -0.28623909 0.92855185
