ply
format ascii 1.0
comment VCGLIB generated
element vertex 1407
property float x
property float y
property float z
property float nx
property float ny
property float nz
element face 0
property list uchar int vertex_indices
end_header
0.069216 0.213576 0.691747 0 0 0 
0.103618 0.102439 0.78709 0 0 0 
0.06628 0.218132 0.695566 0 0 0 
0.226105 0.057298 0.694102 0 0 0 
0.29151 -0.231005 0.82944 0 0 0 
0.291801 -0.221762 0.839303 0 0 0 
0.288016 0.21255 0.632562 0 0 0 
0.253152 0.009787 0.712301 0 0 0 
0.158492 -0.137588 0.891939 0 0 0 
0.208566 0.043743 0.701941 0 0 0 
0.104051 0.042249 0.80647 0 0 0 
0.133768 -0.303248 0.923325 0 0 0 
0.325604 0.280118 0.709872 0 0 0 
0.180768 0.28628 0.681532 0 0 0 
0.312101 0.002454 0.761827 0 0 0 
0.344025 0.203083 0.658253 0 0 0 
0.137161 0.068075 0.727129 0 0 0 
0.335873 -0.061693 0.792027 0 0 0 
0.378321 -0.212544 0.848677 0 0 0 
0.137643 0.07673 0.736406 0 0 0 
0.193173 0.227813 0.641749 0 0 0 
0.212441 0.237686 0.652747 0 0 0 
0.220432 0.304678 0.719183 0 0 0 
0.403422 -0.206549 0.867314 0 0 0 
0.257923 0.134289 0.672215 0 0 0 
0.245696 0.286225 0.690667 0 0 0 
0.2803 0.155003 0.631425 0 0 0 
0.235299 0.198074 0.631687 0 0 0 
0.155636 0.145826 0.683222 0 0 0 
0.162045 -0.082826 0.922838 0 0 0 
0.16414 -0.121598 0.88181 0 0 0 
0.123261 -0.097267 0.897183 0 0 0 
0.221812 0.304678 0.721584 0 0 0 
0.283463 -0.297978 0.815495 0 0 0 
0.245324 0.211054 0.645758 0 0 0 
0.309869 0.047204 0.736088 0 0 0 
0.238792 -0.022849 0.734192 0 0 0 
0.19362 0.292704 0.698516 0 0 0 
0.324131 -0.033885 0.814183 0 0 0 
0.347864 -0.057108 0.814897 0 0 0 
0.423626 0.11829 0.766816 0 0 0 
0.169164 0.252209 0.665817 0 0 0 
0.197635 0.292704 0.698183 0 0 0 
0.270527 -0.033991 0.765253 0 0 0 
0.402383 -0.189501 0.898726 0 0 0 
0.167579 0.205811 0.627312 0 0 0 
0.17322 0.209203 0.631516 0 0 0 
0.198304 0.29337 0.698749 0 0 0 
0.192571 0.258502 0.660667 0 0 0 
0.108346 -0.214187 0.785564 0 0 0 
0.418662 0.118136 0.765807 0 0 0 
0.168466 0.195456 0.618 0 0 0 
0.136365 0.100548 0.709756 0 0 0 
0.338361 -0.211775 0.856787 0 0 0 
0.153248 0.102698 0.696452 0 0 0 
0.258016 -0.042853 0.766788 0 0 0 
0.14972 0.282376 0.683417 0 0 0 
0.312443 -0.278007 0.811788 0 0 0 
0.218626 0.107672 0.673495 0 0 0 
0.208336 0.117903 0.670799 0 0 0 
0.187206 0.164745 0.647274 0 0 0 
0.219757 0.15507 0.624699 0 0 0 
0.315492 0.202095 0.65154 0 0 0 
0.196689 0.062954 0.713756 0 0 0 
0.171456 0.158039 0.664305 0 0 0 
0.254083 0.204938 0.63002 0 0 0 
0.124884 0.270782 0.690035 0 0 0 
0.289574 0.305525 0.721812 0 0 0 
0.194702 0.201693 0.635121 0 0 0 
0.178453 0.277851 0.686333 0 0 0 
0.26536 -0.038467 0.764849 0 0 0 
0.281774 0.034525 0.717183 0 0 0 
0.173215 0.283741 0.694688 0 0 0 
0.138837 0.177673 0.62581 0 0 0 
0.18425 0.280631 0.68804 0 0 0 
0.173009 0.301091 0.716563 0 0 0 
0.339173 -0.067331 0.82502 0 0 0 
0.339734 0.124596 0.695741 0 0 0 
0.073877 0.177679 0.686301 0 0 0 
0.238574 0.2225 0.655817 0 0 0 
0.293079 -0.042118 0.805771 0 0 0 
0.054078 -0.091572 0.937636 0 0 0 
0.114671 -0.323134 0.987686 0 0 0 
0.160562 -0.097795 0.896269 0 0 0 
0.177872 0.283741 0.694738 0 0 0 
0.392003 -0.294366 0.838758 0 0 0 
0.134695 0.062882 0.751141 0 0 0 
0.123353 -0.313706 0.967207 0 0 0 
0.153001 0.092715 0.701616 0 0 0 
0.382327 0.139184 0.758465 0 0 0 
0.135678 0.043582 0.730273 0 0 0 
0.345122 -0.076074 0.821998 0 0 0 
0.308021 0.262792 0.686615 0 0 0 
0.343057 0.127165 0.704423 0 0 0 
0.121388 -0.304242 0.975438 0 0 0 
0.173696 0.278004 0.688 0 0 0 
0.343245 -0.197954 0.862425 0 0 0 
0.069829 0.183958 0.687 0 0 0 
0.176153 0.301458 0.713939 0 0 0 
0.194705 0.19263 0.640361 0 0 0 
0.159992 0.134532 0.683333 0 0 0 
0.306479 0.037498 0.737053 0 0 0 
0.123188 -0.146854 0.837826 0 0 0 
0.159243 -0.36583 0.822199 0 0 0 
0.086867 0.177152 0.655072 0 0 0 
0.219851 0.222604 0.648756 0 0 0 
0.112992 -0.313328 0.994533 0 0 0 
0.183861 0.292351 0.696458 0 0 0 
0.332853 -0.082273 0.823973 0 0 0 
0.35718 0.063812 0.773333 0 0 0 
0.317955 0.258024 0.687445 0 0 0 
0.171968 -0.068067 0.824545 0 0 0 
0.389008 0.174151 0.692375 0 0 0 
0.237216 -0.057775 0.771577 0 0 0 
0.09843 -0.093947 0.897677 0 0 0 
0.24033 -0.095918 0.813 0 0 0 
0.139365 -0.12284 0.887923 0 0 0 
0.398956 0.062678 0.813679 0 0 0 
0.209055 -0.167589 0.853342 0 0 0 
0.213466 -0.172889 0.851547 0 0 0 
0.12719 0.06274 0.761213 0 0 0 
0.180887 0.18841 0.62288 0 0 0 
0.128699 0.058075 0.757971 0 0 0 
0.13438 0.032094 0.725497 0 0 0 
0.25815 -0.047671 0.779184 0 0 0 
0.193504 0.295547 0.699756 0 0 0 
0.396863 0.044879 0.832995 0 0 0 
0.398462 -0.188869 0.896516 0 0 0 
0.174203 0.205811 0.627849 0 0 0 
0.169321 0.207669 0.629726 0 0 0 
0.203571 0.294211 0.700212 0 0 0 
0.194806 0.257481 0.658251 0 0 0 
0.418973 0.116109 0.771452 0 0 0 
0.172614 0.195456 0.618323 0 0 0 
0.360163 -0.147941 0.895448 0 0 0 
0.187793 0.257632 0.660686 0 0 0 
0.21297 0.228093 0.647032 0 0 0 
0.128532 -0.150386 0.831071 0 0 0 
0.12587 -0.149906 0.824919 0 0 0 
0.227491 0.197828 0.640202 0 0 0 
0.217983 0.299254 0.711333 0 0 0 
0.046071 0.18645 0.77026 0 0 0 
0.371934 0.138593 0.720156 0 0 0 
0.134772 0.057663 0.721358 0 0 0 
0.348732 0.101528 0.780338 0 0 0 
0.368757 0.140616 0.719305 0 0 0 
0.378166 0.143713 0.710864 0 0 0 
0.344254 0.222412 0.666123 0 0 0 
0.434265 -0.140955 0.942199 0 0 0 
0.282445 0.268162 0.681884 0 0 0 
0.222816 0.297736 0.711161 0 0 0 
0.358164 0.092713 0.780611 0 0 0 
0.367371 -0.212795 0.848333 0 0 0 
0.217983 0.300613 0.711333 0 0 0 
0.178196 0.102789 0.681098 0 0 0 
0.174539 0.296953 0.712353 0 0 0 
0.249257 -0.052835 0.77706 0 0 0 
0.388911 0.173053 0.703055 0 0 0 
0.278741 -0.044643 0.795699 0 0 0 
0.270071 -0.050545 0.797265 0 0 0 
0.329892 -0.184822 0.86463 0 0 0 
0.233457 0.30568 0.722998 0 0 0 
0.211653 0.186793 0.643635 0 0 0 
0.38609 0.062371 0.818543 0 0 0 
0.341695 0.266341 0.696269 0 0 0 
0.103109 0.167744 0.675452 0 0 0 
0.399636 0.007755 0.863733 0 0 0 
0.168722 0.10283 0.676688 0 0 0 
0.313208 0.027365 0.747122 0 0 0 
0.299492 0.167859 0.641607 0 0 0 
0.238316 0.30568 0.723242 0 0 0 
0.119633 -0.308294 0.982995 0 0 0 
0.328727 -0.214972 0.847939 0 0 0 
0.168664 0.10229 0.682032 0 0 0 
0.181292 0.298414 0.708755 0 0 0 
0.246587 -0.050961 0.768063 0 0 0 
0.116694 -0.316812 0.991944 0 0 0 
0.33969 0.266341 0.695877 0 0 0 
0.163146 0.077945 0.712817 0 0 0 
0.13323 0.061769 0.756796 0 0 0 
0.157039 0.094055 0.702487 0 0 0 
0.382097 0.139366 0.753318 0 0 0 
0.369187 0.220891 0.682236 0 0 0 
0.392106 0.103017 0.777758 0 0 0 
0.120567 0.101845 0.732472 0 0 0 
0.241786 0.30568 0.723495 0 0 0 
0.346764 0.240431 0.68211 0 0 0 
0.248636 0.294711 0.708763 0 0 0 
0.076469 0.146729 0.795393 0 0 0 
0.197948 0.147554 0.674081 0 0 0 
0.238993 0.149181 0.636817 0 0 0 
0.23865 0.153788 0.639447 0 0 0 
0.259872 0.282711 0.6906 0 0 0 
0.118167 0.203783 0.63181 0 0 0 
0.447596 -0.213007 0.886015 0 0 0 
0.251822 0.302724 0.716172 0 0 0 
0.247348 0.303457 0.720626 0 0 0 
0.257253 0.301036 0.713247 0 0 0 
0.135532 -0.337992 0.917635 0 0 0 
0.253571 -0.248016 0.808 0 0 0 
0.254167 0.262698 0.67443 0 0 0 
0.209478 0.180988 0.641968 0 0 0 
0.094104 -0.223616 0.817067 0 0 0 
0.143109 0.227607 0.637072 0 0 0 
0.268604 -0.263014 0.802 0 0 0 
0.272788 -0.258744 0.804011 0 0 0 
0.116357 0.12963 0.71997 0 0 0 
0.099254 0.147763 0.761036 0 0 0 
0.167408 -0.119235 0.875726 0 0 0 
0.045618 -0.129369 0.862032 0 0 0 
0.413857 0.176834 0.737769 0 0 0 
0.283513 0.308921 0.735258 0 0 0 
0.223966 0.182745 0.611941 0 0 0 
0.164124 -0.058133 0.791668 0 0 0 
0.123588 0.139259 0.708245 0 0 0 
0.413475 0.147851 0.747183 0 0 0 
0.166561 -0.032831 0.770496 0 0 0 
0.193293 -0.342862 0.798767 0 0 0 
0.195591 -0.338287 0.799333 0 0 0 
0.123982 0.207826 0.635312 0 0 0 
0.268201 0.209203 0.630182 0 0 0 
0.282826 0.261024 0.672179 0 0 0 
0.27442 0.214283 0.630597 0 0 0 
0.220812 0.177788 0.612425 0 0 0 
0.373836 -0.10234 0.897827 0 0 0 
0.23344 0.133006 0.671869 0 0 0 
0.243386 0.142414 0.671111 0 0 0 
0.158456 -0.026455 0.757192 0 0 0 
0.16127 -0.027285 0.760384 0 0 0 
0.353859 -0.110875 0.867232 0 0 0 
0.108737 0.223001 0.635667 0 0 0 
0.30354 0.22329 0.650839 0 0 0 
0.082502 -0.207893 0.820295 0 0 0 
0.278815 -0.203789 0.851565 0 0 0 
0.363927 0.123167 0.770534 0 0 0 
0.045892 0.168866 0.769246 0 0 0 
0.173002 0.167319 0.645556 0 0 0 
0.460149 -0.187099 0.898307 0 0 0 
0.172009 -0.302612 0.8161 0 0 0 
0.303094 -0.257769 0.811878 0 0 0 
0.319276 0.112359 0.738433 0 0 0 
0.299335 0.219224 0.650391 0 0 0 
0.056763 0.228161 0.719526 0 0 0 
0.275169 0.306524 0.72586 0 0 0 
0.410181 -0.342843 0.850819 0 0 0 
0.280677 0.290282 0.712123 0 0 0 
0.283558 0.289056 0.707091 0 0 0 
0.279191 0.296567 0.721301 0 0 0 
0.279102 0.307791 0.731366 0 0 0 
0.417434 -0.20018 0.879242 0 0 0 
0.096771 0.253604 0.661785 0 0 0 
0.113752 0.206466 0.629565 0 0 0 
0.267988 0.249036 0.665799 0 0 0 
0.1536 -0.272385 0.832369 0 0 0 
0.107779 0.242754 0.660384 0 0 0 
0.278679 -0.007488 0.739808 0 0 0 
0.390543 -0.111538 0.908036 0 0 0 
0.082548 0.24285 0.686369 0 0 0 
0.149346 0.007681 0.706909 0 0 0 
0.198898 -0.067815 0.760133 0 0 0 
0.232433 0.083048 0.693817 0 0 0 
0.053081 0.207908 0.729866 0 0 0 
0.358565 0.107811 0.777333 0 0 0 
0.147414 -0.153645 0.865743 0 0 0 
0.079208 -0.17176 0.777677 0 0 0 
0.116519 0.132567 0.720201 0 0 0 
0.276157 0.186911 0.618 0 0 0 
0.138693 0.232457 0.641464 0 0 0 
0.098135 0.153001 0.761321 0 0 0 
0.04637 0.178031 0.774694 0 0 0 
0.174852 -0.101817 0.863817 0 0 0 
0.284406 0.310736 0.736479 0 0 0 
0.142813 0.275527 0.694667 0 0 0 
0.279485 0.30473 0.733953 0 0 0 
0.287181 0.312013 0.73701 0 0 0 
0.408733 -0.318999 0.85127 0 0 0 
0.38289 0.106701 0.771188 0 0 0 
0.142971 0.287167 0.710075 0 0 0 
0.14377 0.270252 0.690849 0 0 0 
0.401925 0.10797 0.792459 0 0 0 
0.37871 0.108029 0.768425 0 0 0 
0.143374 0.278574 0.701516 0 0 0 
0.293072 0.310746 0.735269 0 0 0 
0.298554 0.283798 0.703667 0 0 0 
0.428655 -0.194438 0.898686 0 0 0 
0.388998 -0.318048 0.836314 0 0 0 
0.293412 0.282724 0.703403 0 0 0 
0.294483 0.310746 0.733749 0 0 0 
0.418699 -0.182653 0.913091 0 0 0 
0.144293 -0.216746 0.829393 0 0 0 
0.328759 0.127114 0.668993 0 0 0 
0.143043 0.222299 0.632625 0 0 0 
0.189424 0.269689 0.670516 0 0 0 
0.192343 0.269285 0.668647 0 0 0 
0.138054 -0.222796 0.825645 0 0 0 
0.238053 0.062904 0.690504 0 0 0 
0.058846 0.222833 0.71174 0 0 0 
0.145006 0.00373 0.726849 0 0 0 
0.388322 -0.322008 0.837919 0 0 0 
0.294286 0.30766 0.73198 0 0 0 
0.417824 -0.179168 0.913394 0 0 0 
0.418007 -0.19781 0.890355 0 0 0 
0.29434 0.277632 0.700877 0 0 0 
0.4135 -0.176452 0.916878 0 0 0 
0.136559 -0.312981 0.916452 0 0 0 
0.33416 0.132454 0.666279 0 0 0 
0.113907 0.157591 0.722059 0 0 0 
0.120879 0.15769 0.710566 0 0 0 
0.262039 0.017273 0.712869 0 0 0 
0.193273 0.270966 0.668484 0 0 0 
0.296197 0.30822 0.73391 0 0 0 
0.409921 -0.185731 0.909817 0 0 0 
0.179049 0.181855 0.625274 0 0 0 
0.182923 0.182726 0.631634 0 0 0 
0.377722 0.117433 0.771314 0 0 0 
0.293294 0.255131 0.67088 0 0 0 
0.239619 0.062449 0.687639 0 0 0 
0.167914 0.173768 0.62788 0 0 0 
0.174153 0.174599 0.630107 0 0 0 
0.132904 0.012277 0.751923 0 0 0 
0.213744 -0.337604 0.801374 0 0 0 
0.157925 0.283783 0.706082 0 0 0 
0.298787 0.259345 0.673056 0 0 0 
0.29547 0.307369 0.728439 0 0 0 
0.29378 0.26764 0.685505 0 0 0 
0.297125 0.253224 0.670609 0 0 0 
0.136482 0.014862 0.75163 0 0 0 
0.201611 0.270966 0.668495 0 0 0 
0.293294 0.256402 0.67088 0 0 0 
0.368096 0.184315 0.671849 0 0 0 
0.272261 0.226943 0.642032 0 0 0 
0.296866 0.306674 0.726696 0 0 0 
0.297272 0.267765 0.686849 0 0 0 
0.418241 -0.187676 0.911119 0 0 0 
0.203535 0.269689 0.66907 0 0 0 
0.172527 0.298202 0.715059 0 0 0 
0.136659 0.02658 0.739424 0 0 0 
0.312941 0.135893 0.655263 0 0 0 
0.19802 0.252792 0.655204 0 0 0 
0.323556 0.132521 0.660091 0 0 0 
0.118716 -0.12257 0.87 0 0 0 
0.122746 -0.123259 0.86907 0 0 0 
0.194764 0.262048 0.662032 0 0 0 
0.348355 0.239077 0.681093 0 0 0 
0.118197 -0.084874 0.911487 0 0 0 
0.139215 0.181564 0.627041 0 0 0 
0.349286 0.227624 0.671543 0 0 0 
0.402858 -0.187547 0.902493 0 0 0 
0.182302 0.296733 0.705321 0 0 0 
0.261737 -0.042012 0.767238 0 0 0 
0.183027 0.292624 0.701557 0 0 0 
0.308732 0.062798 0.726075 0 0 0 
0.243235 0.217785 0.65509 0 0 0 
0.069879 0.177912 0.691639 0 0 0 
0.37281 0.004387 0.854253 0 0 0 
0.161784 -0.347582 0.811151 0 0 0 
0.283168 0.062476 0.701215 0 0 0 
0.113544 0.1778 0.645878 0 0 0 
0.361426 -0.142958 0.898534 0 0 0 
0.372282 0.080697 0.77379 0 0 0 
0.367467 -0.000502 0.852686 0 0 0 
0.360436 -0.137561 0.896175 0 0 0 
0.147075 -0.20962 0.837571 0 0 0 
0.193504 0.294211 0.699756 0 0 0 
0.202712 0.25709 0.658212 0 0 0 
0.151871 0.027095 0.703455 0 0 0 
0.381545 -0.239115 0.838979 0 0 0 
0.07108 0.178021 0.751074 0 0 0 
0.334053 0.211553 0.657749 0 0 0 
0.162761 -0.332531 0.810939 0 0 0 
0.213638 0.290202 0.7009 0 0 0 
0.443784 -0.167759 0.926575 0 0 0 
0.348234 0.192992 0.659726 0 0 0 
0.425604 -0.152326 0.929882 0 0 0 
0.266393 0.139436 0.668333 0 0 0 
0.148289 0.031076 0.70279 0 0 0 
0.209311 0.293123 0.699991 0 0 0 
0.209151 0.177648 0.641452 0 0 0 
0.303304 -0.28805 0.821123 0 0 0 
0.127125 0.071101 0.764817 0 0 0 
0.079465 0.14254 0.807125 0 0 0 
0.208287 0.142408 0.673726 0 0 0 
0.136051 0.202775 0.645059 0 0 0 
0.158667 -0.25971 0.807274 0 0 0 
0.256893 0.297895 0.71179 0 0 0 
0.140206 0.272356 0.692941 0 0 0 
0.129028 0.237605 0.646758 0 0 0 
0.288838 0.309342 0.736607 0 0 0 
0.293808 -0.225209 0.832307 0 0 0 
0.073258 -0.088058 0.916312 0 0 0 
0.082803 -0.089596 0.905939 0 0 0 
0.149085 -0.135886 0.891254 0 0 0 
0.160023 -0.145938 0.890151 0 0 0 
0.132532 0.271663 0.69516 0 0 0 
0.297746 0.298494 0.720122 0 0 0 
0.297094 0.306962 0.731374 0 0 0 
0.418708 -0.195936 0.898091 0 0 0 
0.30078 0.267887 0.689314 0 0 0 
0.297204 0.277751 0.703321 0 0 0 
0.293868 0.308069 0.737452 0 0 0 
0.358114 0.177746 0.670295 0 0 0 
0.333661 -0.333163 0.825667 0 0 0 
0.330483 -0.327638 0.824365 0 0 0 
0.365076 -0.297187 0.830518 0 0 0 
0.306163 0.191364 0.646801 0 0 0 
0.272296 0.228619 0.646498 0 0 0 
0.268592 0.232774 0.64803 0 0 0 
0.122367 0.04228 0.771414 0 0 0 
0.361674 0.010844 0.843413 0 0 0 
0.281569 0.29478 0.719067 0 0 0 
0.363146 0.182487 0.670731 0 0 0 
0.299118 0.302642 0.725785 0 0 0 
0.349159 0.233108 0.67572 0 0 0 
0.174143 0.301356 0.712801 0 0 0 
0.167254 0.298051 0.705593 0 0 0 
0.338678 -0.19736 0.862484 0 0 0 
0.27387 0.037529 0.710131 0 0 0 
0.279226 0.035746 0.715183 0 0 0 
0.077223 0.198666 0.675426 0 0 0 
0.313387 0.052808 0.735891 0 0 0 
0.257195 0.039559 0.698536 0 0 0 
0.285575 -0.042465 0.802016 0 0 0 
0.323617 0.141519 0.655192 0 0 0 
0.243347 0.222839 0.656373 0 0 0 
0.338847 -0.077783 0.820514 0 0 0 
0.393743 -0.29266 0.842002 0 0 0 
0.342787 -0.067576 0.826654 0 0 0 
0.380875 0.15703 0.694531 0 0 0 
0.071904 0.181608 0.685777 0 0 0 
0.258904 0.04095 0.699 0 0 0 
0.317342 0.032485 0.751295 0 0 0 
0.295038 -0.038215 0.804556 0 0 0 
0.051389 -0.091572 0.942522 0 0 0 
0.198867 0.263076 0.661516 0 0 0 
0.078984 0.18768 0.666344 0 0 0 
0.313896 0.133173 0.657294 0 0 0 
0.192662 0.253178 0.656444 0 0 0 
0.176399 0.298468 0.714626 0 0 0 
0.357701 -0.147282 0.892806 0 0 0 
0.043797 0.166366 0.770813 0 0 0 
0.169521 0.167577 0.634254 0 0 0 
0.172546 0.167508 0.641699 0 0 0 
0.314061 0.282308 0.706699 0 0 0 
0.149691 0.28788 0.696849 0 0 0 
0.274473 0.30306 0.725365 0 0 0 
0.36884 0.12259 0.771565 0 0 0 
0.240753 -0.312779 0.804242 0 0 0 
0.303509 -0.228868 0.827667 0 0 0 
0.292816 -0.225494 0.836061 0 0 0 
0.299436 0.259345 0.67517 0 0 0 
0.209042 -0.057783 0.751061 0 0 0 
0.153871 -0.140678 0.890202 0 0 0 
0.168972 0.126889 0.676808 0 0 0 
0.173515 0.132704 0.676819 0 0 0 
0.216311 0.161741 0.660504 0 0 0 
0.218448 0.158013 0.656749 0 0 0 
0.275942 -0.01537 0.743563 0 0 0 
0.068403 -0.150192 0.817425 0 0 0 
0.164144 -0.23432 0.814172 0 0 0 
0.308144 -0.056345 0.812939 0 0 0 
0.17465 -0.092649 0.862758 0 0 0 
0.293143 -0.247485 0.818575 0 0 0 
0.178444 0.137669 0.676314 0 0 0 
0.290439 0.209535 0.636475 0 0 0 
0.304206 0.011664 0.746374 0 0 0 
0.283127 0.304298 0.735044 0 0 0 
0.293826 0.272602 0.695948 0 0 0 
0.317344 -0.188264 0.853421 0 0 0 
0.297695 0.292315 0.709747 0 0 0 
0.105433 0.087547 0.79405 0 0 0 
0.102389 0.097381 0.799743 0 0 0 
0.195403 0.090035 0.702122 0 0 0 
0.37822 0.112719 0.77 0 0 0 
0.139882 0.276319 0.697244 0 0 0 
0.299126 0.30193 0.721393 0 0 0 
0.287959 0.310736 0.740007 0 0 0 
0.180946 0.103243 0.683455 0 0 0 
0.168623 0.298051 0.710911 0 0 0 
0.247775 -0.054803 0.780307 0 0 0 
0.272419 0.038099 0.708192 0 0 0 
0.283839 0.037266 0.716667 0 0 0 
0.14342 -0.288066 0.892634 0 0 0 
0.327429 0.127389 0.720854 0 0 0 
0.280271 -0.044643 0.800581 0 0 0 
0.269373 -0.052521 0.802213 0 0 0 
0.304226 0.101822 0.719676 0 0 0 
0.354084 0.233155 0.679444 0 0 0 
0.373799 0.132464 0.761131 0 0 0 
0.323335 -0.022177 0.811817 0 0 0 
0.156183 -0.357881 0.832122 0 0 0 
0.292661 0.087796 0.712091 0 0 0 
0.086286 0.171617 0.670122 0 0 0 
0.07574 0.174151 0.686607 0 0 0 
0.322853 0.13297 0.656769 0 0 0 
0.234443 0.222786 0.654151 0 0 0 
0.320906 0.027658 0.755471 0 0 0 
0.353181 0.237727 0.68157 0 0 0 
0.385496 0.1826 0.7044 0 0 0 
0.189282 0.261336 0.663172 0 0 0 
0.32613 -0.2331 0.829061 0 0 0 
0.332894 -0.231561 0.831306 0 0 0 
0.316073 0.037346 0.747799 0 0 0 
0.243301 -0.025756 0.736495 0 0 0 
0.241513 -0.046023 0.758183 0 0 0 
0.404109 -0.191219 0.899898 0 0 0 
0.087687 0.169321 0.666061 0 0 0 
0.33746 -0.205358 0.861525 0 0 0 
0.180782 0.296897 0.707312 0 0 0 
0.304275 -0.043049 0.810758 0 0 0 
0.262657 -0.043133 0.771319 0 0 0 
0.272593 0.028121 0.713102 0 0 0 
0.278243 0.027596 0.717052 0 0 0 
0.383054 0.154574 0.697185 0 0 0 
0.068552 0.177912 0.694242 0 0 0 
0.314344 0.1438 0.654242 0 0 0 
0.24349 0.214956 0.653726 0 0 0 
0.168191 0.297665 0.717119 0 0 0 
0.311511 0.13776 0.661869 0 0 0 
0.203354 0.252552 0.655878 0 0 0 
0.163441 0.268027 0.681404 0 0 0 
0.301716 0.037345 0.732982 0 0 0 
0.37325 0.208045 0.67197 0 0 0 
0.173353 0.242777 0.645607 0 0 0 
0.034599 0.20251 0.785301 0 0 0 
0.183247 0.232928 0.644373 0 0 0 
0.136177 0.177476 0.63536 0 0 0 
0.18111 0.293876 0.705333 0 0 0 
0.367836 0.083648 0.772941 0 0 0 
0.378321 -0.007783 0.852413 0 0 0 
0.188536 0.292456 0.699253 0 0 0 
0.107843 -0.177745 0.773151 0 0 0 
0.148094 -0.212437 0.837667 0 0 0 
0.14113 0.086318 0.710082 0 0 0 
0.199254 0.2567 0.656849 0 0 0 
0.203652 0.25811 0.659091 0 0 0 
0.285719 0.094993 0.709584 0 0 0 
0.279258 0.094189 0.703941 0 0 0 
0.241194 0.237622 0.657457 0 0 0 
0.13378 -0.263094 0.846385 0 0 0 
0.116665 -0.247637 0.846069 0 0 0 
0.397341 0.149388 0.733217 0 0 0 
0.360528 -0.010284 0.850575 0 0 0 
0.131302 0.178756 0.64507 0 0 0 
0.281956 0.076865 0.697881 0 0 0 
0.213205 0.293459 0.702516 0 0 0 
0.257862 0.182181 0.615 0 0 0 
0.258137 0.139661 0.661496 0 0 0 
0.263706 0.09762 0.694971 0 0 0 
0.267676 0.139436 0.670154 0 0 0 
0.34799 0.127548 0.762009 0 0 0 
0.258228 0.142795 0.658457 0 0 0 
0.339071 -0.137392 0.856726 0 0 0 
0.06882 0.178504 0.751076 0 0 0 
0.256987 0.176561 0.619303 0 0 0 
0.163101 -0.333144 0.806817 0 0 0 
0.128895 -0.3479 0.937744 0 0 0 
0.330316 0.107641 0.760107 0 0 0 
0.209981 0.289788 0.698758 0 0 0 
0.397071 -0.129248 0.929362 0 0 0 
0.444193 -0.172881 0.925747 0 0 0 
0.354829 0.131738 0.761088 0 0 0 
0.06406 0.183743 0.747747 0 0 0 
0.424884 -0.21763 0.865 0 0 0 
0.214553 0.293459 0.704233 0 0 0 
0.072814 0.16428 0.757365 0 0 0 
0.16023 0.163393 0.673384 0 0 0 
0.225454 0.283332 0.687679 0 0 0 
0.214111 0.28415 0.695222 0 0 0 
0.305391 -0.019119 0.787103 0 0 0 
0.333552 0.198331 0.660484 0 0 0 
0.219103 0.297317 0.707635 0 0 0 
0.25465 0.267744 0.675949 0 0 0 
0.218095 0.195694 0.641556 0 0 0 
0.357816 0.214712 0.664548 0 0 0 
0.226809 0.298051 0.713484 0 0 0 
0.349179 0.084514 0.780701 0 0 0 
0.134583 0.037793 0.720639 0 0 0 
0.261261 0.267887 0.679056 0 0 0 
0.373466 -0.206073 0.864891 0 0 0 
0.114018 0.103985 0.716183 0 0 0 
0.118318 0.103549 0.711869 0 0 0 
0.245292 0.298051 0.713635 0 0 0 
0.264274 0.288113 0.706417 0 0 0 
0.248018 0.297895 0.711351 0 0 0 
0.109885 0.252724 0.654925 0 0 0 
0.348654 0.007379 0.828174 0 0 0 
0.348767 0.168922 0.666872 0 0 0 
0.279485 0.306123 0.733953 0 0 0 
0.143523 0.272356 0.691172 0 0 0 
0.288279 0.308904 0.740059 0 0 0 
0.38289 0.114041 0.769799 0 0 0 
0.136563 0.283126 0.695112 0 0 0 
0.17397 0.177985 0.624878 0 0 0 
0.16664 0.175522 0.628435 0 0 0 
0.399378 0.111027 0.786621 0 0 0 
0.151807 0.283783 0.708909 0 0 0 
0.217499 0.294711 0.706787 0 0 0 
0.360046 0.012465 0.845442 0 0 0 
0.158143 0.229036 0.640565 0 0 0 
0.237366 0.273634 0.674242 0 0 0 
0.249313 0.294711 0.70863 0 0 0 
0.133771 0.192845 0.651635 0 0 0 
0.055215 0.194968 0.731565 0 0 0 
0.133432 -0.085941 0.930913 0 0 0 
0.324165 0.128042 0.699947 0 0 0 
0.310603 0.128013 0.68396 0 0 0 
0.278336 0.302783 0.730053 0 0 0 
0.18835 0.124023 0.678877 0 0 0 
0.288133 0.281517 0.700927 0 0 0 
0.384402 0.186108 0.700605 0 0 0 
0.463053 -0.152326 0.921979 0 0 0 
0.442938 -0.192937 0.899959 0 0 0 
0.188166 0.117669 0.676122 0 0 0 
0.218352 -0.327666 0.801244 0 0 0 
0.075219 -0.164655 0.78309 0 0 0 
0.238616 -0.30894 0.802091 0 0 0 
0.276348 0.281091 0.693183 0 0 0 
0.262983 -0.228446 0.818061 0 0 0 
0.151731 -0.162881 0.860794 0 0 0 
0.297274 0.304312 0.729874 0 0 0 
0.291264 0.304712 0.734434 0 0 0 
0.073558 -0.187662 0.824847 0 0 0 
0.408769 -0.207964 0.86614 0 0 0 
0.26812 0.288655 0.710654 0 0 0 
0.268807 0.299323 0.720726 0 0 0 
0.212507 0.1621 0.640274 0 0 0 
0.214837 0.159873 0.636635 0 0 0 
0.246359 0.286225 0.691799 0 0 0 
0.083139 0.163114 0.770968 0 0 0 
0.323304 -0.212983 0.852756 0 0 0 
0.15037 0.282376 0.689725 0 0 0 
0.167479 -0.077911 0.871693 0 0 0 
0.185095 0.105878 0.678626 0 0 0 
0.333632 0.24852 0.689968 0 0 0 
0.307177 0.270765 0.691817 0 0 0 
0.39194 0.187662 0.691607 0 0 0 
0.38906 0.112866 0.770484 0 0 0 
0.148831 0.112528 0.691939 0 0 0 
0.210946 0.027326 0.708909 0 0 0 
0.114056 0.027455 0.81145 0 0 0 
0.252896 0.22307 0.654 0 0 0 
0.161093 0.297369 0.712296 0 0 0 
0.090426 0.215171 0.649968 0 0 0 
0.087003 0.173039 0.690251 0 0 0 
0.090978 0.171787 0.685163 0 0 0 
0.223439 0.052655 0.695627 0 0 0 
0.154377 0.296156 0.719785 0 0 0 
0.373281 0.127011 0.770989 0 0 0 
0.373564 0.13243 0.764556 0 0 0 
0.153001 0.278972 0.700563 0 0 0 
0.31846 0.253169 0.685144 0 0 0 
0.167722 0.294785 0.714844 0 0 0 
0.149683 -0.037674 0.827361 0 0 0 
0.228493 -0.037362 0.744183 0 0 0 
0.302517 -0.358571 0.821708 0 0 0 
0.252796 -0.322818 0.807373 0 0 0 
0.206321 -0.277827 0.804606 0 0 0 
0.103925 -0.202424 0.778091 0 0 0 
0.282863 0.148568 0.666333 0 0 0 
0.088393 -0.092541 0.90103 0 0 0 
0.238408 -0.124251 0.841968 0 0 0 
0.105333 -0.13888 0.844 0 0 0 
0.257241 -0.139953 0.834455 0 0 0 
0.104709 -0.142855 0.838849 0 0 0 
0.256365 -0.143196 0.839425 0 0 0 
0.103959 -0.147391 0.833069 0 0 0 
0.103209 -0.152635 0.826452 0 0 0 
0.102584 -0.157979 0.820328 0 0 0 
0.056637 -0.171256 0.85059 0 0 0 
0.333327 -0.205358 0.861393 0 0 0 
0.303124 -0.047634 0.810604 0 0 0 
0.122893 -0.083078 0.919123 0 0 0 
0.077597 0.173897 0.68479 0 0 0 
0.0907 0.171978 0.677678 0 0 0 
0.364343 -0.020323 0.856578 0 0 0 
0.164983 -0.061993 0.857027 0 0 0 
0.170168 0.241677 0.645543 0 0 0 
0.129409 -0.09694 0.907151 0 0 0 
0.338071 -0.231283 0.831583 0 0 0 
0.149786 -0.041086 0.831511 0 0 0 
0.24313 -0.042182 0.756505 0 0 0 
0.231873 -0.041132 0.748374 0 0 0 
0.158567 0.176846 0.620808 0 0 0 
0.19349 0.201693 0.631341 0 0 0 
0.177988 0.292948 0.705627 0 0 0 
0.207983 0.204611 0.645242 0 0 0 
0.301571 -0.051499 0.808484 0 0 0 
0.261354 0.145348 0.646672 0 0 0 
0.177957 0.232672 0.645565 0 0 0 
0.188052 0.202766 0.625607 0 0 0 
0.353036 0.227962 0.676185 0 0 0 
0.180338 0.291955 0.702183 0 0 0 
0.34904 -0.21285 0.847489 0 0 0 
0.141726 0.079197 0.710547 0 0 0 
0.293095 0.137746 0.667 0 0 0 
0.176283 0.253982 0.664215 0 0 0 
0.189605 0.290705 0.697484 0 0 0 
0.091944 0.129603 0.799708 0 0 0 
0.092476 0.13383 0.795963 0 0 0 
0.091368 0.137104 0.790787 0 0 0 
0.09369 0.142817 0.786361 0 0 0 
0.18504 0.211205 0.628284 0 0 0 
0.178624 0.212887 0.633231 0 0 0 
0.037136 -0.146429 0.893502 0 0 0 
0.313526 0.137548 0.651516 0 0 0 
0.195836 0.251782 0.653414 0 0 0 
0.188394 0.28788 0.695758 0 0 0 
0.193065 0.288544 0.696516 0 0 0 
0.366558 0.079427 0.773817 0 0 0 
0.31308 0.259242 0.685414 0 0 0 
0.228506 -0.062426 0.771828 0 0 0 
0.368249 0.068508 0.78191 0 0 0 
0.138992 0.087363 0.712355 0 0 0 
0.177284 -0.177556 0.874543 0 0 0 
0.198119 0.287466 0.695444 0 0 0 
0.168307 0.212887 0.632315 0 0 0 
0.167474 0.253204 0.66938 0 0 0 
0.313993 -0.032252 0.811758 0 0 0 
0.188072 0.250627 0.651091 0 0 0 
0.393675 -0.192073 0.891575 0 0 0 
0.158278 -0.34796 0.820834 0 0 0 
0.363129 -0.242887 0.831055 0 0 0 
0.228368 0.213054 0.651251 0 0 0 
0.137321 -0.018046 0.830168 0 0 0 
0.423802 0.118016 0.770846 0 0 0 
0.17247 0.252716 0.665306 0 0 0 
0.369298 0.049179 0.826635 0 0 0 
0.331761 0.266797 0.693607 0 0 0 
0.458687 -0.15888 0.932242 0 0 0 
0.28857 0.093225 0.711373 0 0 0 
0.202989 0.290705 0.697798 0 0 0 
0.317965 0.147145 0.654939 0 0 0 
0.209338 0.255594 0.658393 0 0 0 
0.22914 0.237526 0.655151 0 0 0 
0.161224 -0.333524 0.819633 0 0 0 
0.238413 -0.220965 0.827849 0 0 0 
0.363311 0.072864 0.775443 0 0 0 
0.222324 0.289021 0.702181 0 0 0 
0.258528 0.167734 0.618274 0 0 0 
0.442545 -0.158539 0.929542 0 0 0 
0.348441 0.203083 0.660588 0 0 0 
0.423399 -0.143022 0.932617 0 0 0 
0.217558 0.293204 0.703151 0 0 0 
0.363768 0.010882 0.848005 0 0 0 
0.223591 0.29269 0.706455 0 0 0 
0.2683 0.272976 0.682061 0 0 0 
0.233727 0.230831 0.652699 0 0 0 
0.22726 0.293933 0.708425 0 0 0 
0.251681 0.271865 0.675367 0 0 0 
0.088365 -0.098427 0.892849 0 0 0 
0.23131 0.29612 0.709402 0 0 0 
0.227815 0.231184 0.653473 0 0 0 
0.317107 0.082253 0.731913 0 0 0 
0.234089 0.292948 0.706215 0 0 0 
0.247246 0.271776 0.675194 0 0 0 
0.238145 0.292948 0.705699 0 0 0 
0.358649 0.208705 0.670099 0 0 0 
0.349776 0.217971 0.669782 0 0 0 
0.429298 -0.135986 0.946122 0 0 0 
0.356809 0.197665 0.663222 0 0 0 
0.338179 -0.270834 0.813758 0 0 0 
0.259507 -0.213298 0.833365 0 0 0 
0.338622 0.217888 0.661435 0 0 0 
0.341673 0.216953 0.66179 0 0 0 
0.363688 0.209016 0.671607 0 0 0 
0.241532 0.293104 0.703986 0 0 0 
0.404946 -0.121667 0.940122 0 0 0 
0.250385 0.273156 0.681109 0 0 0 
0.266276 0.10366 0.698091 0 0 0 
0.386382 -0.167603 0.908878 0 0 0 
0.154934 -0.026979 0.771504 0 0 0 
0.173271 -0.029151 0.75088 0 0 0 
0.353634 -0.289528 0.832122 0 0 0 
0.228017 -0.222502 0.822333 0 0 0 
0.222791 -0.222796 0.826253 0 0 0 
0.240139 0.289788 0.702398 0 0 0 
0.308641 0.173484 0.646142 0 0 0 
0.262085 0.077733 0.688365 0 0 0 
0.243167 0.291538 0.700235 0 0 0 
0.378542 -0.207527 0.854971 0 0 0 
0.21402 0.239299 0.654131 0 0 0 
0.371316 0.062744 0.797129 0 0 0 
0.243167 0.290202 0.700235 0 0 0 
0.156581 -0.087563 0.92005 0 0 0 
0.189273 -0.274236 0.807909 0 0 0 
0.152762 0.057369 0.703667 0 0 0 
0.240139 0.291122 0.702398 0 0 0 
0.132185 0.170336 0.664142 0 0 0 
0.248219 0.291955 0.70193 0 0 0 
0.459132 -0.182376 0.897125 0 0 0 
0.158636 0.232819 0.64219 0 0 0 
0.183247 0.162751 0.645557 0 0 0 
0.179196 0.158687 0.646516 0 0 0 
0.263459 0.294374 0.714574 0 0 0 
0.253015 0.292948 0.705871 0 0 0 
0.341431 0.107811 0.770677 0 0 0 
0.228278 0.182446 0.609909 0 0 0 
0.25717 0.293933 0.711039 0 0 0 
0.081719 -0.207893 0.824508 0 0 0 
0.250069 0.280958 0.69217 0 0 0 
0.276942 0.302783 0.726911 0 0 0 
0.309388 0.127719 0.692484 0 0 0 
0.323108 0.282266 0.71126 0 0 0 
0.307436 0.203095 0.645013 0 0 0 
0.358649 0.16778 0.671104 0 0 0 
0.283686 0.226858 0.645941 0 0 0 
0.354108 0.015447 0.827942 0 0 0 
0.279547 0.282306 0.696183 0 0 0 
0.273205 0.293962 0.719131 0 0 0 
0.269008 0.293144 0.716393 0 0 0 
0.423923 -0.202609 0.875 0 0 0 
0.292782 0.302639 0.731122 0 0 0 
0.256528 -0.072372 0.809547 0 0 0 
0.138286 -0.142833 0.86277 0 0 0 
0.333622 -0.308014 0.821919 0 0 0 
0.361437 0.173285 0.673576 0 0 0 
0.249669 0.201893 0.62719 0 0 0 
0.14042 -0.1505 0.851682 0 0 0 
0.141667 -0.152453 0.846927 0 0 0 
0.328093 -0.312743 0.820688 0 0 0 
0.052946 0.199534 0.746627 0 0 0 
0.249235 0.24369 0.665088 0 0 0 
0.212479 0.27404 0.679424 0 0 0 
0.295761 0.302783 0.727543 0 0 0 
0.193536 -0.216335 0.847183 0 0 0 
0.305708 0.238515 0.658845 0 0 0 
0.162629 -0.189342 0.848015 0 0 0 
0.407921 -0.323849 0.847462 0 0 0 
0.137913 0.283126 0.701798 0 0 0 
0.127292 0.037565 0.765808 0 0 0 
0.127301 0.027651 0.774886 0 0 0 
0.136254 0.027508 0.766158 0 0 0 
0.298567 0.297934 0.717253 0 0 0 
0.160023 -0.117876 0.892817 0 0 0 
0.083292 0.167709 0.721647 0 0 0 
0.0824 0.214128 0.675151 0 0 0 
0.076491 0.213118 0.67988 0 0 0 
0.123976 0.167124 0.681536 0 0 0 
0.183582 0.289373 0.698941 0 0 0 
0.162698 0.167508 0.640778 0 0 0 
0.122568 0.091789 0.754909 0 0 0 
0.20206 0.279318 0.688726 0 0 0 
0.085611 0.192155 0.658338 0 0 0 
0.197927 0.282923 0.691667 0 0 0 
0.183319 0.287628 0.697 0 0 0 
0.203075 0.28788 0.696 0 0 0 
0.314771 -0.027602 0.810755 0 0 0 
0.113748 0.102677 0.741881 0 0 0 
0.172888 0.210741 0.631728 0 0 0 
0.152347 0.097656 0.698686 0 0 0 
0.171079 0.254745 0.669695 0 0 0 
0.233369 0.213054 0.651758 0 0 0 
0.192407 0.251397 0.652333 0 0 0 
0.137262 -0.01783 0.826177 0 0 0 
0.392404 -0.188027 0.893 0 0 0 
0.122932 -0.152936 0.815059 0 0 0 
0.131452 -0.32249 0.936531 0 0 0 
0.373989 0.077947 0.775901 0 0 0 
0.328628 0.267733 0.692495 0 0 0 
0.323516 0.262729 0.691749 0 0 0 
0.133262 0.052527 0.751063 0 0 0 
0.134091 0.037243 0.737288 0 0 0 
0.135863 0.039444 0.731612 0 0 0 
0.133132 0.027827 0.72648 0 0 0 
0.092521 0.136539 0.797701 0 0 0 
0.094591 0.132381 0.791145 0 0 0 
0.15702 -0.283174 0.855373 0 0 0 
0.333961 0.112706 0.756554 0 0 0 
0.208413 0.28788 0.696323 0 0 0 
0.156647 -0.312633 0.826507 0 0 0 
0.058376 0.157986 0.757373 0 0 0 
0.063295 0.16262 0.756091 0 0 0 
0.159997 0.163109 0.661309 0 0 0 
0.160231 0.160161 0.654032 0 0 0 
0.284106 0.077753 0.701453 0 0 0 
0.393457 -0.12241 0.931555 0 0 0 
0.245091 0.252832 0.663672 0 0 0 
0.332415 0.208109 0.659606 0 0 0 
0.213478 0.27056 0.667403 0 0 0 
0.206409 0.271371 0.668787 0 0 0 
0.328093 -0.297874 0.820627 0 0 0 
0.412179 0.167677 0.733067 0 0 0 
0.272593 0.289061 0.709826 0 0 0 
0.266258 0.296566 0.718129 0 0 0 
0.272961 0.297945 0.721758 0 0 0 
0.047663 0.202915 0.760939 0 0 0 
0.327728 0.171283 0.65077 0 0 0 
0.327952 0.16706 0.646793 0 0 0 
0.332364 0.166494 0.651428 0 0 0 
0.360576 0.16842 0.673931 0 0 0 
0.365209 0.167744 0.679793 0 0 0 
0.162744 -0.077852 0.926391 0 0 0 
0.097207 -0.223616 0.806464 0 0 0 
0.258056 0.287829 0.696599 0 0 0 
0.208056 0.267441 0.665566 0 0 0 
0.261964 -0.284191 0.808726 0 0 0 
0.323366 -0.241716 0.82612 0 0 0 
0.283444 0.303184 0.730636 0 0 0 
0.369092 0.183205 0.676018 0 0 0 
0.124283 0.269054 0.695188 0 0 0 
0.114601 0.141721 0.721991 0 0 0 
0.122751 0.14256 0.710195 0 0 0 
0.266155 -0.006682 0.728579 0 0 0 
0.266429 0.242018 0.658314 0 0 0 
0.209863 0.276144 0.683395 0 0 0 
0.10935 0.20854 0.628484 0 0 0 
0.122437 0.262603 0.67276 0 0 0 
0.288838 0.305127 0.737183 0 0 0 
0.082187 0.238525 0.685502 0 0 0 
0.354909 0.013853 0.833674 0 0 0 
0.191265 -0.120457 0.854565 0 0 0 
0.192818 -0.127203 0.851627 0 0 0 
0.241869 -0.188893 0.840072 0 0 0 
0.064524 0.235416 0.703963 0 0 0 
0.107942 0.238075 0.660878 0 0 0 
0.303081 -0.117585 0.829444 0 0 0 
0.298672 -0.12248 0.830142 0 0 0 
0.407553 0.172558 0.726054 0 0 0 
0.353395 0.171873 0.671072 0 0 0 
0.339256 0.171204 0.657247 0 0 0 
0.27014 0.221527 0.637941 0 0 0 
0.225088 0.273634 0.673776 0 0 0 
0.360038 0.180938 0.66988 0 0 0 
0.35571 0.015447 0.839406 0 0 0 
0.362401 0.180198 0.671564 0 0 0 
0.296214 0.299737 0.724425 0 0 0 
0.367451 0.213176 0.667988 0 0 0 
0.183531 0.237605 0.646 0 0 0 
0.223443 0.19907 0.644877 0 0 0 
0.289934 0.089154 0.710626 0 0 0 
0.278741 -0.046167 0.795699 0 0 0 
0.182553 0.258556 0.665667 0 0 0 
0.158682 0.266858 0.682686 0 0 0 
0.237816 -0.02136 0.731699 0 0 0 
0.237446 -0.032348 0.74304 0 0 0 
0.243206 -0.037764 0.751059 0 0 0 
0.377393 0.147233 0.700528 0 0 0 
0.277457 0.044118 0.706699 0 0 0 
0.28215 0.042391 0.712 0 0 0 
0.174731 0.294763 0.711575 0 0 0 
0.109927 0.092501 0.776054 0 0 0 
0.368362 0.118016 0.771129 0 0 0 
0.35693 0.252763 0.687195 0 0 0 
0.263258 -0.287925 0.813333 0 0 0 
0.103474 0.187374 0.645061 0 0 0 
0.30237 0.008094 0.747181 0 0 0 
0.304242 -0.227836 0.829667 0 0 0 
0.302674 0.243384 0.661467 0 0 0 
0.274411 0.300152 0.724966 0 0 0 
0.287684 0.266858 0.682315 0 0 0 
0.390574 0.068244 0.77982 0 0 0 
0.093355 0.122603 0.79097 0 0 0 
0.393684 0.058497 0.824505 0 0 0 
0.218215 0.002309 0.715738 0 0 0 
0.144733 0.280848 0.682926 0 0 0 
0.144396 0.287973 0.706553 0 0 0 
0.408452 0.097932 0.792822 0 0 0 
0.351749 0.255575 0.688619 0 0 0 
0.383364 0.02364 0.841858 0 0 0 
0.308003 0.283126 0.704889 0 0 0 
0.054531 0.206238 0.717091 0 0 0 
0.254506 -0.057302 0.790079 0 0 0 
0.288079 -0.247963 0.818091 0 0 0 
0.104096 0.112745 0.731697 0 0 0 
0.134155 0.112815 0.702516 0 0 0 
0.214921 0.033756 0.703274 0 0 0 
0.292257 0.207122 0.636338 0 0 0 
0.330175 0.064663 0.74874 0 0 0 
0.150358 0.28788 0.701838 0 0 0 
0.329557 0.049927 0.7619 0 0 0 
0.328436 -0.047928 0.815364 0 0 0 
0.332782 -0.052008 0.817242 0 0 0 
0.0532 0.212583 0.721533 0 0 0 
0.152933 -0.357801 0.845998 0 0 0 
0.067486 -0.132697 0.855242 0 0 0 
0.158553 0.296979 0.715345 0 0 0 
0.268731 -0.282368 0.806635 0 0 0 
0.213158 0.162573 0.66712 0 0 0 
0.064091 -0.152373 0.813123 0 0 0 
0.061237 -0.167613 0.827301 0 0 0 
0.313747 0.022464 0.748393 0 0 0 
0.218297 0.153301 0.670534 0 0 0 
0.141388 -0.307853 0.888365 0 0 0 
0.236857 0.150435 0.651767 0 0 0 
0.292481 -0.236986 0.825758 0 0 0 
0.290951 0.200927 0.628343 0 0 0 
0.161777 0.292599 0.714941 0 0 0 
0.1783 0.237237 0.645172 0 0 0 
0.278947 -0.047222 0.802077 0 0 0 
0.178358 0.257673 0.665604 0 0 0 
0.127542 -0.312704 0.948374 0 0 0 
0.298402 0.137539 0.665878 0 0 0 
0.169516 0.293139 0.712009 0 0 0 
0.380077 0.151242 0.702986 0 0 0 
0.457414 -0.142306 0.944957 0 0 0 
0.288032 0.087426 0.706667 0 0 0 
0.218853 0.017103 0.706627 0 0 0 
0.183531 0.243154 0.645939 0 0 0 
0.173971 0.232928 0.644939 0 0 0 
0.377337 -0.262848 0.827425 0 0 0 
0.171904 0.291602 0.705314 0 0 0 
0.22845 -0.002475 0.717314 0 0 0 
0.279315 0.041595 0.710496 0 0 0 
0.369401 0.041845 0.8327 0 0 0 
0.390067 0.133016 0.761183 0 0 0 
0.130136 -0.312543 0.93645 0 0 0 
0.353308 -0.227615 0.835333 0 0 0 
0.073367 0.177868 0.711161 0 0 0 
0.188366 0.283174 0.691374 0 0 0 
0.173792 0.287786 0.700183 0 0 0 
0.15277 0.177323 0.629242 0 0 0 
0.157061 -0.348141 0.826815 0 0 0 
0.223305 0.213641 0.65079 0 0 0 
0.352674 -0.177576 0.871628 0 0 0 
0.1753 0.287628 0.698123 0 0 0 
0.343362 0.227548 0.667909 0 0 0 
0.183986 0.251012 0.652172 0 0 0 
0.395073 -0.175297 0.91012 0 0 0 
0.178641 0.287628 0.697061 0 0 0 
0.37236 0.172693 0.685631 0 0 0 
0.223315 0.290775 0.702484 0 0 0 
0.161616 -0.332652 0.816321 0 0 0 
0.418489 -0.229522 0.857061 0 0 0 
0.218647 0.28861 0.700242 0 0 0 
0.443784 -0.163336 0.927333 0 0 0 
0.318246 -0.332739 0.821909 0 0 0 
0.359871 0.07277 0.774242 0 0 0 
0.077679 0.167546 0.76164 0 0 0 
0.207779 -0.222773 0.823314 0 0 0 
0.243176 -0.220965 0.827706 0 0 0 
0.257816 0.167633 0.621333 0 0 0 
0.152587 0.167797 0.665061 0 0 0 
0.248597 0.137539 0.666374 0 0 0 
0.226685 0.290775 0.702038 0 0 0 
0.029195 0.181307 0.846933 0 0 0 
0.248872 0.18395 0.625726 0 0 0 
0.368465 -0.020276 0.870794 0 0 0 
0.223767 0.239665 0.654878 0 0 0 
0.308382 0.177585 0.651635 0 0 0 
0.238262 -0.222502 0.82288 0 0 0 
0.22148 -0.220706 0.835111 0 0 0 
0.227709 0.289021 0.700937 0 0 0 
0.208959 0.279724 0.689941 0 0 0 
0.387611 -0.158428 0.913909 0 0 0 
0.229099 0.28788 0.697032 0 0 0 
0.222458 0.237686 0.652242 0 0 0 
0.433667 -0.152653 0.932182 0 0 0 
0.089601 0.133706 0.832033 0 0 0 
0.267871 0.145119 0.659837 0 0 0 
0.244388 0.198677 0.632242 0 0 0 
0.234774 0.287628 0.692747 0 0 0 
0.238938 0.247294 0.657333 0 0 0 
0.398806 -0.204658 0.866324 0 0 0 
0.30914 -0.016134 0.78129 0 0 0 
0.334354 -0.061693 0.801352 0 0 0 
0.071928 0.157571 0.763314 0 0 0 
0.202103 0.225806 0.643111 0 0 0 
0.271857 0.266805 0.673457 0 0 0 
0.284245 0.082665 0.701434 0 0 0 
0.268154 0.142839 0.666626 0 0 0 
0.363117 0.071937 0.773858 0 0 0 
0.332415 0.212519 0.659717 0 0 0 
0.233062 0.283257 0.690953 0 0 0 
0.353198 0.192653 0.660747 0 0 0 
0.366506 0.140084 0.70262 0 0 0 
0.106221 -0.173827 0.77388 0 0 0 
0.373503 0.143687 0.700926 0 0 0 
0.317965 0.153397 0.655253 0 0 0 
0.243616 0.283257 0.690021 0 0 0 
0.20839 0.258502 0.659878 0 0 0 
0.249067 0.287052 0.69569 0 0 0 
0.2778 0.223879 0.642 0 0 0 
0.283438 -0.231561 0.83106 0 0 0 
0.263332 -0.223043 0.823767 0 0 0 
0.283615 -0.223094 0.841321 0 0 0 
0.148764 -0.148334 0.881524 0 0 0 
0.283003 0.19759 0.621365 0 0 0 
0.099536 0.157569 0.755574 0 0 0 
0.253596 0.28861 0.701052 0 0 0 
0.160014 -0.055791 0.803395 0 0 0 
0.344161 -0.096928 0.856114 0 0 0 
0.392003 -0.348015 0.839032 0 0 0 
0.2361 0.079188 0.693726 0 0 0 
0.193864 -0.057552 0.747928 0 0 0 
0.122706 0.262188 0.67586 0 0 0 
0.217574 0.090078 0.68712 0 0 0 
0.07771 0.229068 0.685543 0 0 0 
0.086283 0.229589 0.675119 0 0 0 
0.333036 0.172776 0.65493 0 0 0 
0.058245 0.187062 0.74702 0 0 0 
0.147756 0.156301 0.685937 0 0 0 
0.21921 0.094149 0.688819 0 0 0 
0.273166 0.278557 0.691123 0 0 0 
0.2578 0.29243 0.707323 0 0 0 
0.063651 0.192475 0.730842 0 0 0 
0.291651 0.207122 0.632686 0 0 0 
0.276805 0.297667 0.725535 0 0 0 
0.223464 0.10687 0.673032 0 0 0 
0.207978 0.120358 0.672849 0 0 0 
0.222617 0.15402 0.627639 0 0 0 
0.453435 -0.191644 0.902374 0 0 0 
0.28735 0.302897 0.731562 0 0 0 
0.409848 -0.337561 0.850795 0 0 0 
0.278737 0.28419 0.700881 0 0 0 
0.410502 0.181705 0.732143 0 0 0 
0.408225 -0.172951 0.916686 0 0 0 
0.41889 -0.202609 0.874484 0 0 0 
0.298235 -0.127386 0.831131 0 0 0 
0.318514 0.211905 0.664253 0 0 0 
0.27988 0.212325 0.627123 0 0 0 
0.216226 0.279724 0.681172 0 0 0 
0.288278 0.302356 0.728417 0 0 0 
0.335718 0.067362 0.760343 0 0 0 
0.22318 0.278017 0.681927 0 0 0 
0.287302 0.298491 0.725494 0 0 0 
0.409345 0.156909 0.745513 0 0 0 
0.088158 0.167869 0.710342 0 0 0 
0.28779 0.29822 0.721567 0 0 0 
0.113997 0.167858 0.686688 0 0 0 
0.133957 0.271156 0.693566 0 0 0 
0.08654 0.212863 0.665638 0 0 0 
0.137482 0.272873 0.695627 0 0 0 
0.192987 0.117843 0.675787 0 0 0 
0.287151 0.269468 0.689316 0 0 0 
0.288133 0.280181 0.700927 0 0 0 
0.188575 0.265937 0.666091 0 0 0 
0.142979 -0.217541 0.826556 0 0 0 
0.418456 0.129429 0.756 0 0 0 
0.3338 0.127423 0.672123 0 0 0 
0.163184 0.203038 0.625374 0 0 0 
0.14724 0.187829 0.625434 0 0 0 
0.189266 0.272586 0.671807 0 0 0 
0.419921 0.138583 0.747726 0 0 0 
0.401954 -0.332779 0.843305 0 0 0 
0.289631 0.296566 0.717333 0 0 0 
0.320382 0.243478 0.672271 0 0 0 
0.10417 0.092331 0.797667 0 0 0 
0.196076 0.091375 0.701244 0 0 0 
0.100769 0.137524 0.750072 0 0 0 
0.08654 0.20777 0.665788 0 0 0 
0.141942 0.273805 0.695021 0 0 0 
0.134347 0.280711 0.695185 0 0 0 
0.1006 -0.216784 0.788941 0 0 0 
0.041095 0.156917 0.78586 0 0 0 
0.038777 0.162734 0.787017 0 0 0 
0.189462 0.12283 0.676484 0 0 0 
0.291006 0.296566 0.71604 0 0 0 
0.142633 -0.222527 0.82488 0 0 0 
0.196279 0.070548 0.714027 0 0 0 
0.418855 0.127548 0.761435 0 0 0 
0.159243 0.202766 0.626941 0 0 0 
0.280813 0.299726 0.729228 0 0 0 
0.193624 0.26801 0.667565 0 0 0 
0.297529 0.274168 0.698188 0 0 0 
0.414079 0.133051 0.751575 0 0 0 
0.102368 -0.218088 0.789668 0 0 0 
0.345603 0.134138 0.681402 0 0 0 
0.154008 -0.011119 0.746061 0 0 0 
0.392807 -0.322392 0.838808 0 0 0 
0.293342 0.292727 0.711516 0 0 0 
0.136559 -0.308605 0.916077 0 0 0 
0.136239 -0.298104 0.906242 0 0 0 
0.418456 0.130872 0.756 0 0 0 
0.419358 0.141957 0.746269 0 0 0 
0.335437 0.132454 0.669848 0 0 0 
0.145904 0.190227 0.628542 0 0 0 
0.192343 0.27056 0.668647 0 0 0 
0.10048 -0.220429 0.792216 0 0 0 
0.291231 0.272749 0.693656 0 0 0 
0.114344 -0.132852 0.855484 0 0 0 
0.282508 0.151605 0.651901 0 0 0 
0.203673 0.233753 0.649454 0 0 0 
0.194339 0.243044 0.649486 0 0 0 
0.144082 0.279552 0.676388 0 0 0 
0.223638 -0.002475 0.717091 0 0 0 
0.218521 -0.002472 0.71697 0 0 0 
0.144733 0.279552 0.682926 0 0 0 
0.102716 0.212742 0.629383 0 0 0 
0.353521 -0.323697 0.827758 0 0 0 
0.340753 -0.310337 0.824314 0 0 0 
0.352633 0.156737 0.66663 0 0 0 
0.309016 0.213109 0.655339 0 0 0 
0.408241 -0.154703 0.923122 0 0 0 
0.348758 -0.318165 0.827151 0 0 0 
0.263659 0.291637 0.710965 0 0 0 
0.34873 0.162573 0.665572 0 0 0 
0.379425 -0.107008 0.9089 0 0 0 
0.103142 0.252564 0.670785 0 0 0 
0.237885 0.268173 0.670758 0 0 0 
0.416018 0.172551 0.743988 0 0 0 
0.363566 -0.328042 0.831486 0 0 0 
0.248757 0.280958 0.684725 0 0 0 
0.159345 -0.073488 0.931132 0 0 0 
0.138992 0.009787 0.713566 0 0 0 
0.07573 0.246385 0.693682 0 0 0 
0.097995 0.249362 0.671314 0 0 0 
0.343913 -0.312696 0.825011 0 0 0 
0.34202 0.158107 0.657032 0 0 0 
0.343805 0.162756 0.661796 0 0 0 
0.242381 0.272649 0.672055 0 0 0 
0.258562 0.251058 0.667314 0 0 0 
0.243854 0.266336 0.666636 0 0 0 
0.160735 0.236869 0.643312 0 0 0 
0.133566 0.243418 0.649849 0 0 0 
0.186593 0.272751 0.674607 0 0 0 
0.147827 0.250182 0.658647 0 0 0 
0.140827 0.005299 0.748795 0 0 0 
0.110356 0.140423 0.72809 0 0 0 
0.128828 0.143105 0.706484 0 0 0 
0.079424 0.177513 0.662123 0 0 0 
0.244228 0.027172 0.704151 0 0 0 
0.309002 0.240864 0.665351 0 0 0 
0.330418 0.125873 0.682941 0 0 0 
0.298149 0.242905 0.656869 0 0 0 
0.289631 0.295197 0.717333 0 0 0 
0.291565 0.294374 0.714686 0 0 0 
0.158111 0.292052 0.715817 0 0 0 
0.328873 -0.202184 0.860011 0 0 0 
0.093843 0.118056 0.776683 0 0 0 
0.171904 0.290257 0.705314 0 0 0 
0.121264 -0.298331 0.973639 0 0 0 
0.123705 0.073731 0.762333 0 0 0 
0.303604 0.272993 0.696909 0 0 0 
0.377233 0.122432 0.770514 0 0 0 
0.139997 0.277261 0.688159 0 0 0 
0.287082 0.206948 0.627547 0 0 0 
0.288261 0.238152 0.656 0 0 0 
0.163271 0.282306 0.696817 0 0 0 
0.154208 0.29246 0.717749 0 0 0 
0.167764 0.272825 0.679692 0 0 0 
0.157708 0.281115 0.702059 0 0 0 
0.318797 0.286216 0.710504 0 0 0 
0.438117 -0.179953 0.917525 0 0 0 
0.318878 0.268005 0.690849 0 0 0 
0.318116 0.275898 0.700939 0 0 0 
0.339069 0.247616 0.690991 0 0 0 
0.152092 0.292996 0.72021 0 0 0 
0.164737 0.292459 0.712849 0 0 0 
0.140649 -0.307769 0.884963 0 0 0 
0.148416 0.215827 0.630988 0 0 0 
0.148374 0.257557 0.669849 0 0 0 
0.151385 -0.358287 0.850877 0 0 0 
0.068465 -0.128918 0.856878 0 0 0 
0.396356 -0.298014 0.838183 0 0 0 
0.160416 0.287977 0.711237 0 0 0 
0.157614 0.295745 0.719454 0 0 0 
0.157708 0.279781 0.702059 0 0 0 
0.153916 0.122918 0.689694 0 0 0 
0.343224 0.252543 0.692 0 0 0 
0.164328 0.279363 0.694333 0 0 0 
0.150623 0.240065 0.651059 0 0 0 
0.288668 -0.187808 0.856846 0 0 0 
0.343379 0.258281 0.695688 0 0 0 
0.264357 -0.037489 0.761749 0 0 0 
0.138803 -0.28838 0.902511 0 0 0 
0.375107 0.161966 0.695307 0 0 0 
0.22317 0.202462 0.646122 0 0 0 
0.328105 -0.077367 0.822131 0 0 0 
0.328508 0.127607 0.706627 0 0 0 
0.283628 -0.050927 0.802104 0 0 0 
0.293477 0.102366 0.716907 0 0 0 
0.093094 0.118056 0.779663 0 0 0 
0.168087 0.288647 0.706575 0 0 0 
0.26358 -0.050037 0.782746 0 0 0 
0.327988 -0.197724 0.861151 0 0 0 
0.143087 0.18218 0.621193 0 0 0 
0.350486 -0.227342 0.834364 0 0 0 
0.395155 0.152589 0.701213 0 0 0 
0.193385 0.282764 0.690274 0 0 0 
0.371364 0.042593 0.832746 0 0 0 
0.258422 0.031209 0.705091 0 0 0 
0.454156 -0.147255 0.941635 0 0 0 
0.343479 0.232762 0.673183 0 0 0 
0.155785 0.177323 0.628342 0 0 0 
0.14394 0.177474 0.61788 0 0 0 
0.32732 0.128224 0.699764 0 0 0 
0.169395 0.288091 0.702303 0 0 0 
0.092498 0.127669 0.781485 0 0 0 
0.094608 0.132682 0.776939 0 0 0 
0.372682 0.185313 0.68042 0 0 0 
0.373443 0.023781 0.847726 0 0 0 
0.229373 -0.063818 0.78418 0 0 0 
0.080319 0.169863 0.708425 0 0 0 
0.110555 0.167595 0.678244 0 0 0 
0.157061 -0.352871 0.826815 0 0 0 
0.354771 -0.182354 0.870679 0 0 0 
0.327931 0.127676 0.696868 0 0 0 
0.170622 0.286298 0.697295 0 0 0 
0.378907 0.137548 0.755862 0 0 0 
0.183056 0.284558 0.695543 0 0 0 
0.286928 0.103549 0.713142 0 0 0 
0.084367 0.19255 0.662466 0 0 0 
0.204266 0.281855 0.690129 0 0 0 
0.18673 0.2781 0.685 0 0 0 
0.112878 -0.332955 0.98205 0 0 0 
0.326754 0.283059 0.71063 0 0 0 
0.038826 0.202098 0.78264 0 0 0 
0.203822 0.283741 0.694333 0 0 0 
0.158044 -0.31857 0.826103 0 0 0 
0.067734 0.162835 0.757041 0 0 0 
0.15705 0.163355 0.665286 0 0 0 
0.388572 -0.113393 0.931829 0 0 0 
0.20878 0.28415 0.694968 0 0 0 
0.136636 0.067456 0.741598 0 0 0 
0.243193 0.252832 0.660964 0 0 0 
0.269921 0.266805 0.673425 0 0 0 
0.249874 0.134997 0.667032 0 0 0 
0.223461 0.283332 0.691862 0 0 0 
0.227428 0.256758 0.661516 0 0 0 
0.221877 0.278017 0.68515 0 0 0 
0.233534 0.275736 0.675525 0 0 0 
0.150852 -0.310029 0.850123 0 0 0 
0.432934 -0.12958 0.952151 0 0 0 
0.293519 -0.16801 0.852 0 0 0 
0.111944 -0.227476 0.81104 0 0 0 
0.130426 0.185959 0.653484 0 0 0 
0.138738 -0.356518 0.885968 0 0 0 
0.121947 -0.292831 0.958548 0 0 0 
0.242157 -0.207579 0.840192 0 0 0 
0.170823 -0.107872 0.870738 0 0 0 
0.172338 -0.112218 0.866233 0 0 0 
0.174447 -0.118015 0.861941 0 0 0 
0.038952 -0.127742 0.877523 0 0 0 
0.094046 -0.227562 0.829792 0 0 0 
0.123273 -0.217672 0.811884 0 0 0 
0.109677 0.255982 0.661002 0 0 0 
0.263169 0.187464 0.615566 0 0 0 
0.228732 0.278426 0.6803 0 0 0 
0.230293 0.275736 0.675575 0 0 0 
0.104655 0.158637 0.73182 0 0 0 
0.131276 0.157479 0.69998 0 0 0 
0.233302 0.278426 0.680313 0 0 0 
0.09303 0.252884 0.675563 0 0 0 
0.33974 -0.003587 0.815404 0 0 0 
0.3344 0.087434 0.760448 0 0 0 
0.273558 -0.057185 0.806005 0 0 0 
0.164344 -0.060602 0.781862 0 0 0 
0.18337 -0.06291 0.760747 0 0 0 
0.252943 -0.077399 0.805556 0 0 0 
0.303142 -0.10783 0.827425 0 0 0 
0.323896 -0.153908 0.85305 0 0 0 
0.358852 0.155273 0.673939 0 0 0 
0.328348 0.158933 0.646941 0 0 0 
0.333499 0.15743 0.650717 0 0 0 
0.343397 -0.003609 0.82215 0 0 0 
0.077576 -0.217306 0.863838 0 0 0 
0.099873 0.256002 0.674635 0 0 0 
0.313413 -0.116794 0.828393 0 0 0 
0.264371 0.122789 0.694091 0 0 0 
0.093874 0.167766 0.762068 0 0 0 
0.050048 0.211007 0.761956 0 0 0 
0.163494 -0.015143 0.736064 0 0 0 
0.244914 0.278082 0.679991 0 0 0 
0.238719 0.277672 0.676374 0 0 0 
0.132709 0.192155 0.65436 0 0 0 
0.058159 0.192726 0.731463 0 0 0 
0.092457 -0.227562 0.84157 0 0 0 
0.434829 -0.21096 0.874556 0 0 0 
0.063724 0.232715 0.691407 0 0 0 
0.092872 0.232117 0.660937 0 0 0 
0.233842 -0.208877 0.843242 0 0 0 
0.278981 0.127165 0.690559 0 0 0 
0.300609 0.193554 0.646329 0 0 0 
0.115037 -0.246016 0.843398 0 0 0 
0.242607 0.277672 0.676732 0 0 0 
0.359622 -0.000499 0.840763 0 0 0 
0.258731 0.287829 0.699973 0 0 0 
0.2233 0.166063 0.613393 0 0 0 
0.047418 0.15309 0.780175 0 0 0 
0.443886 -0.132306 0.952324 0 0 0 
0.264243 0.230919 0.647878 0 0 0 
0.262297 0.291637 0.706721 0 0 0 
0.107311 0.155633 0.730591 0 0 0 
0.134158 0.227355 0.638342 0 0 0 
0.353059 0.108693 0.778314 0 0 0 
0.167468 0.038314 0.712253 0 0 0 
0.28226 0.296156 0.717896 0 0 0 
0.267349 0.228619 0.644546 0 0 0 
0.271077 0.232774 0.648365 0 0 0 
0.19532 0.062954 0.713828 0 0 0 
0.120458 0.043867 0.773516 0 0 0 
0.281282 0.293009 0.715192 0 0 0 
0.34358 -0.332777 0.826849 0 0 0 
0.22339 0.267609 0.666726 0 0 0 
0.272861 0.257673 0.666607 0 0 0 
0.41148 -0.336749 0.854018 0 0 0 
0.318414 0.107708 0.731557 0 0 0 
0.412589 0.182943 0.733164 0 0 0 
0.413071 -0.172264 0.917909 0 0 0 
0.222157 0.273056 0.672081 0 0 0 
0.252943 0.239155 0.664151 0 0 0 
0.104576 0.251946 0.651651 0 0 0 
0.193408 0.062098 0.712242 0 0 0 
0.173368 0.042332 0.711688 0 0 0 
0.282038 0.291637 0.709862 0 0 0 
0.281623 0.273805 0.690301 0 0 0 
0.087662 0.167599 0.705868 0 0 0 
0.288839 0.288238 0.705425 0 0 0 
0.388199 0.186637 0.704635 0 0 0 
0.108236 0.168759 0.686268 0 0 0 
0.188514 -0.317624 0.79579 0 0 0 
0.323785 -0.192418 0.856082 0 0 0 
0.29357 0.288238 0.705061 0 0 0 
0.05614 0.212598 0.716776 0 0 0 
0.060549 0.222929 0.707122 0 0 0 
0.118506 0.167515 0.702002 0 0 0 
0.12886 0.223608 0.636758 0 0 0 
