ply
format ascii 1.0
comment VCGLIB generated
element vertex 1403
property float x
property float y
property float z
property float nx
property float ny
property float nz
element face 0
property list uchar int vertex_indices
end_header
0.101322 0.035279 0.762839 0 0 0 
0.082386 0.037795 0.788306 0 0 0 
0.194078 -0.010002 0.717172 0 0 0 
0.049455 0.214194 0.693565 0 0 0 
0.20116 0.065164 0.693747 0 0 0 
0.343379 0.220472 0.694321 0 0 0 
0.070129 0.20779 0.662364 0 0 0 
0.11984 -0.308725 0.827149 0 0 0 
-0.017727 -0.104068 0.80141 0 0 0 
0.083685 0.205842 0.64291 0 0 0 
0.083034 0.066966 0.78418 0 0 0 
0.11988 -0.331607 0.804695 0 0 0 
0.251671 0.192331 0.629566 0 0 0 
0.15981 0.202012 0.632817 0 0 0 
0.16061 0.195933 0.628251 0 0 0 
0.223901 0.19233 0.642425 0 0 0 
0.264228 0.144698 0.636247 0 0 0 
0.360663 0.161755 0.707002 0 0 0 
0.241995 0.205842 0.645425 0 0 0 
0.251818 0.202073 0.637484 0 0 0 
0.096639 -0.009922 0.820477 0 0 0 
0.076614 -0.319993 0.958138 0 0 0 
0.256711 0.201726 0.634374 0 0 0 
0.303165 0.007021 0.780979 0 0 0 
0.347301 -0.184598 0.914676 0 0 0 
0.284487 0.207474 0.656314 0 0 0 
0.212357 0.178078 0.614548 0 0 0 
0.109905 0.058947 0.723935 0 0 0 
0.285985 0.208735 0.658686 0 0 0 
0.31462 0.212534 0.671312 0 0 0 
0.302829 0.201289 0.672635 0 0 0 
0.281876 -0.016643 0.773886 0 0 0 
0.31473 0.214128 0.675071 0 0 0 
0.347377 0.128936 0.696367 0 0 0 
0.123844 0.007572 0.697688 0 0 0 
0.074199 0.159684 0.752365 0 0 0 
0.230766 0.107749 0.692193 0 0 0 
0.320029 0.215079 0.677737 0 0 0 
0.119014 0.041915 0.703626 0 0 0 
0.111387 0.029948 0.708446 0 0 0 
0.035417 -0.187938 0.80403 0 0 0 
0.338433 0.219226 0.688939 0 0 0 
0.045685 0.143407 0.776561 0 0 0 
0.046911 0.175411 0.747895 0 0 0 
0.04464 0.219343 0.700222 0 0 0 
0.255612 0.109978 0.701435 0 0 0 
0.107603 0.018581 0.757906 0 0 0 
0.285999 0.115599 0.678817 0 0 0 
0.321886 0.052663 0.77413 0 0 0 
0.134136 0.195378 0.634758 0 0 0 
0.376849 0.150092 0.730241 0 0 0 
0.240011 0.202135 0.643061 0 0 0 
0.08368 0.081097 0.781274 0 0 0 
0.07065 0.119288 0.759982 0 0 0 
0.167761 0.083646 0.70158 0 0 0 
0.124787 0.195993 0.6369 0 0 0 
0.047664 0.219111 0.696817 0 0 0 
0.257052 0.112854 0.695063 0 0 0 
0.205521 0.059118 0.692909 0 0 0 
0.177388 0.041477 0.707909 0 0 0 
0.046995 0.149365 0.761667 0 0 0 
0.330103 0.167347 0.675749 0 0 0 
0.068634 0.207134 0.665807 0 0 0 
0.330487 -0.291718 0.833817 0 0 0 
0.10887 0.201835 0.642685 0 0 0 
0.096918 -0.285816 0.86946 0 0 0 
0.119984 0.201835 0.643251 0 0 0 
0.304069 0.108592 0.732393 0 0 0 
0.165461 0.154849 0.649559 0 0 0 
0.234741 0.047076 0.691233 0 0 0 
0.234105 0.033039 0.700342 0 0 0 
0.051445 0.14433 0.775159 0 0 0 
0.051288 0.172782 0.746517 0 0 0 
0.142366 0.195954 0.631667 0 0 0 
0.099961 0.001779 0.783091 0 0 0 
0.054814 0.158194 0.760747 0 0 0 
0.140565 -0.165938 0.870214 0 0 0 
0.141765 -0.074998 0.781087 0 0 0 
0.294815 0.201706 0.662716 0 0 0 
0.27981 -0.256695 0.826566 0 0 0 
0.171794 0.196221 0.629516 0 0 0 
0.051533 -0.103419 0.890878 0 0 0 
0.236029 0.20526 0.650516 0 0 0 
0.246097 0.201781 0.638111 0 0 0 
0.063618 -0.238171 0.810483 0 0 0 
0.384819 0.139162 0.75242 0 0 0 
0.046861 0.213176 0.695849 0 0 0 
0.200405 0.058709 0.695484 0 0 0 
0.267044 0.200516 0.633822 0 0 0 
0.266324 0.196221 0.628398 0 0 0 
0.316897 -0.187607 0.882434 0 0 0 
0.308726 0.208393 0.668 0 0 0 
0.131349 0.070234 0.706063 0 0 0 
0.315584 -0.193865 0.878467 0 0 0 
0.039678 -0.143026 0.838575 0 0 0 
0.08007 -0.129595 0.86697 0 0 0 
0.333198 0.213431 0.682416 0 0 0 
0.30186 0.202344 0.668767 0 0 0 
0.285548 -0.016815 0.777176 0 0 0 
0.309966 -0.20879 0.865 0 0 0 
0.34314 0.213767 0.682797 0 0 0 
0.280504 0.127943 0.669314 0 0 0 
0.286489 0.127752 0.666262 0 0 0 
0.052325 0.213655 0.689183 0 0 0 
0.199917 0.064316 0.691333 0 0 0 
0.067016 -0.338224 0.980731 0 0 0 
0.273566 0.145119 0.661552 0 0 0 
0.275656 0.082036 0.721425 0 0 0 
0.143415 -0.032348 0.740968 0 0 0 
0.001116 -0.122022 0.878758 0 0 0 
0.260352 0.104521 0.713373 0 0 0 
0.176245 0.195954 0.632672 0 0 0 
0.302196 -0.041078 0.818183 0 0 0 
0.302953 0.187323 0.669242 0 0 0 
0.323802 0.207735 0.672885 0 0 0 
0.342139 -0.343227 0.840484 0 0 0 
0.393758 -0.214658 0.911292 0 0 0 
0.394013 -0.196955 0.927566 0 0 0 
0.132025 0.047357 0.705837 0 0 0 
0.313084 -0.166822 0.886274 0 0 0 
0.332408 0.205908 0.664478 0 0 0 
0.326196 0.114758 0.764247 0 0 0 
0.325793 0.093307 0.785647 0 0 0 
0.065927 0.209328 0.670438 0 0 0 
0.257651 -0.371892 0.820887 0 0 0 
0.05117 0.139093 0.814631 0 0 0 
0.075322 -0.165947 0.798695 0 0 0 
0.090067 0.19937 0.643123 0 0 0 
0.092564 0.19691 0.638881 0 0 0 
0.209595 0.144161 0.647839 0 0 0 
0.110701 0.053088 0.753234 0 0 0 
0.099748 0.199641 0.635877 0 0 0 
0.245212 0.195954 0.630839 0 0 0 
0.318093 0.110173 0.700504 0 0 0 
0.075536 -0.314759 0.958995 0 0 0 
0.256903 0.196245 0.63 0 0 0 
0.046261 0.206175 0.695193 0 0 0 
0.1944 0.059374 0.695645 0 0 0 
0.26916 0.195333 0.631159 0 0 0 
0.033148 0.212689 0.694909 0 0 0 
0.200495 0.047281 0.694758 0 0 0 
0.143385 0.093739 0.685 0 0 0 
0.219898 -0.069077 0.790993 0 0 0 
0.221234 -0.067804 0.786263 0 0 0 
0.27105 0.196868 0.636664 0 0 0 
0.142377 -0.31462 0.797233 0 0 0 
0.283858 0.205596 0.649022 0 0 0 
0.310009 0.207755 0.669454 0 0 0 
0.302183 0.196151 0.672108 0 0 0 
0.314152 0.207735 0.670312 0 0 0 
0.111386 -0.288748 0.845199 0 0 0 
0.268145 -0.101068 0.816323 0 0 0 
0.011716 -0.100311 0.923875 0 0 0 
0.168182 0.182436 0.629387 0 0 0 
0.1708 0.180296 0.632749 0 0 0 
0.35414 0.16752 0.68943 0 0 0 
0.320585 0.207735 0.67109 0 0 0 
0.351549 0.219343 0.698585 0 0 0 
0.335263 0.124416 0.691425 0 0 0 
0.35189 0.219386 0.695377 0 0 0 
0.320593 0.156207 0.669922 0 0 0 
0.346168 0.213689 0.688899 0 0 0 
0.369619 0.110371 0.768749 0 0 0 
0.346825 0.213689 0.684789 0 0 0 
0.338121 0.207782 0.671067 0 0 0 
0.312161 0.1505 0.655183 0 0 0 
0.296613 0.165899 0.654881 0 0 0 
0.120736 -0.230223 0.816881 0 0 0 
0.119008 0.022971 0.699749 0 0 0 
0.303692 0.173509 0.666123 0 0 0 
0.338758 0.207782 0.667982 0 0 0 
0.080674 -0.320614 0.941808 0 0 0 
0.262474 0.178867 0.625993 0 0 0 
0.293283 0.081419 0.740628 0 0 0 
0.268695 0.081123 0.718151 0 0 0 
0.270322 0.126326 0.674666 0 0 0 
0.084184 -0.286039 0.900694 0 0 0 
0.085112 0.201839 0.654747 0 0 0 
0.308964 -0.303821 0.832527 0 0 0 
0.267465 0.141125 0.660867 0 0 0 
0.361833 -0.313589 0.87887 0 0 0 
0.10264 0.198114 0.637597 0 0 0 
0.178624 0.195971 0.637466 0 0 0 
0.180213 0.191089 0.639753 0 0 0 
0.149315 0.149931 0.660498 0 0 0 
0.135193 0.161741 0.6589 0 0 0 
0.341234 0.212916 0.690091 0 0 0 
0.090923 0.161971 0.706384 0 0 0 
0.354268 -0.360134 0.843414 0 0 0 
0.342561 0.212916 0.693281 0 0 0 
0.037767 0.221788 0.711017 0 0 0 
0.024147 0.143786 0.802667 0 0 0 
0.286181 0.202147 0.648415 0 0 0 
0.234439 0.029736 0.701787 0 0 0 
0.108985 -0.349232 0.838355 0 0 0 
0.268695 0.103736 0.718244 0 0 0 
0.327188 0.207378 0.676153 0 0 0 
0.173433 -0.247084 0.810667 0 0 0 
0.17585 -0.245197 0.813192 0 0 0 
0.017604 -0.131163 0.860828 0 0 0 
0.017208 -0.107547 0.884184 0 0 0 
0.32567 0.033621 0.81137 0 0 0 
0.086801 -0.164324 0.804059 0 0 0 
0.369828 -0.166706 0.931747 0 0 0 
0.010459 -0.113703 0.883353 0 0 0 
0.089804 0.199686 0.647939 0 0 0 
0.111211 -0.175493 0.817718 0 0 0 
0.011128 -0.125205 0.871641 0 0 0 
0.057551 0.190728 0.671843 0 0 0 
0.092056 0.196612 0.643749 0 0 0 
0.102696 0.196918 0.644 0 0 0 
0.104224 0.19937 0.641941 0 0 0 
0.28463 0.094405 0.719941 0 0 0 
0.115822 -0.371861 0.810011 0 0 0 
0.031846 0.200079 0.729202 0 0 0 
0.114517 0.201233 0.647575 0 0 0 
0.03602 0.190764 0.719194 0 0 0 
0.119425 0.196001 0.642315 0 0 0 
0.229888 0.199991 0.644627 0 0 0 
0.262986 -0.217236 0.838699 0 0 0 
0.365824 -0.215782 0.895262 0 0 0 
0.235256 -0.205082 0.853878 0 0 0 
0.188497 -0.044991 0.740607 0 0 0 
0.241134 0.195971 0.633516 0 0 0 
0.104563 -0.021086 0.805096 0 0 0 
0.07772 0.031142 0.798388 0 0 0 
0.28256 0.202163 0.64557 0 0 0 
0.348874 0.214194 0.694971 0 0 0 
0.083563 0.034972 0.791315 0 0 0 
0.239313 0.135558 0.633064 0 0 0 
0.075583 0.045134 0.792147 0 0 0 
0.257145 -0.199027 0.856059 0 0 0 
0.044577 0.213678 0.699828 0 0 0 
0.297491 -0.037955 0.817667 0 0 0 
0.091021 -0.337515 0.907309 0 0 0 
0.251406 -0.04066 0.767568 0 0 0 
0.16558 0.190512 0.62529 0 0 0 
0.217596 -0.024085 0.728312 0 0 0 
0.086693 0.013355 0.804452 0 0 0 
0.107018 0.198762 0.644374 0 0 0 
0.14844 0.190219 0.626242 0 0 0 
0.107692 0.132809 0.704484 0 0 0 
0.154088 0.19172 0.62621 0 0 0 
0.405554 -0.214423 0.910686 0 0 0 
0.405988 -0.199368 0.929312 0 0 0 
0.109875 0.012387 0.706215 0 0 0 
0.272741 -0.020085 0.760667 0 0 0 
0.330103 0.206057 0.67704 0 0 0 
0.192165 -0.226842 0.841242 0 0 0 
0.124718 -0.113369 0.889253 0 0 0 
0.334176 0.208843 0.683311 0 0 0 
0.311933 0.205839 0.66895 0 0 0 
0.286295 -0.016815 0.781231 0 0 0 
0.383364 -0.219036 0.883565 0 0 0 
0.061364 -0.165708 0.788385 0 0 0 
0.056438 -0.163737 0.792618 0 0 0 
0.016058 -0.165634 0.831782 0 0 0 
0.245208 0.104105 0.700941 0 0 0 
0.034644 0.21886 0.717611 0 0 0 
0.062947 0.178774 0.66005 0 0 0 
0.060592 0.19144 0.669726 0 0 0 
0.090768 0.195983 0.647183 0 0 0 
0.319302 0.11676 0.682563 0 0 0 
0.052249 0.195641 0.688844 0 0 0 
0.121587 -0.365097 0.793398 0 0 0 
0.097453 0.196306 0.641869 0 0 0 
0.109674 -0.354272 0.833728 0 0 0 
0.108471 0.196589 0.64921 0 0 0 
0.287569 0.195307 0.653753 0 0 0 
0.117373 -0.371861 0.807904 0 0 0 
0.117623 0.199378 0.646351 0 0 0 
0.182797 -0.343291 0.800516 0 0 0 
0.187633 -0.338369 0.801 0 0 0 
0.117215 0.164286 0.639627 0 0 0 
0.160015 0.189597 0.621941 0 0 0 
0.24525 0.192026 0.629002 0 0 0 
0.045452 -0.096514 0.906183 0 0 0 
0.228391 0.173445 0.626957 0 0 0 
0.101686 -0.360009 0.860747 0 0 0 
0.098493 -0.014006 0.820091 0 0 0 
0.262845 -0.228412 0.835183 0 0 0 
0.171678 -0.045759 0.742607 0 0 0 
0.240268 0.186037 0.626242 0 0 0 
0.246062 0.190523 0.626909 0 0 0 
0.246847 0.193532 0.628758 0 0 0 
0.267528 0.189628 0.627597 0 0 0 
0.051682 0.129072 0.837667 0 0 0 
0.199506 0.018477 0.705807 0 0 0 
0.137802 -0.294326 0.806699 0 0 0 
0.286022 0.148493 0.661183 0 0 0 
0.30338 -0.307791 0.831878 0 0 0 
0.171812 -0.142267 0.844061 0 0 0 
0.166147 -0.136629 0.844242 0 0 0 
0.270969 0.19053 0.631281 0 0 0 
0.381261 0.015946 0.860319 0 0 0 
0.349205 0.214041 0.698269 0 0 0 
-0.003329 -0.104276 0.935261 0 0 0 
0.35189 0.213373 0.695971 0 0 0 
0.339513 0.205839 0.678897 0 0 0 
0.322376 0.114802 0.749489 0 0 0 
0.321333 0.083015 0.785673 0 0 0 
0.10894 -0.26367 0.803618 0 0 0 
0.172068 0.18993 0.630052 0 0 0 
0.147342 0.192331 0.629059 0 0 0 
0.221192 -0.213197 0.840215 0 0 0 
0.101758 0.165777 0.661575 0 0 0 
0.258111 0.192637 0.630425 0 0 0 
0.27512 0.191742 0.642547 0 0 0 
0.223465 0.156113 0.636755 0 0 0 
0.102813 -0.103472 0.91317 0 0 0 
0.261923 0.192331 0.629253 0 0 0 
0.275516 -0.359531 0.823878 0 0 0 
0.27425 0.190534 0.636526 0 0 0 
0.235037 -0.125547 0.819566 0 0 0 
0.335977 0.207843 0.683109 0 0 0 
0.251843 -0.004604 0.7291 0 0 0 
0.269875 -0.005423 0.745504 0 0 0 
0.378286 -0.142908 0.947593 0 0 0 
0.366149 -0.13946 0.93343 0 0 0 
0.108662 0.023791 0.729089 0 0 0 
0.118838 0.00159 0.699021 0 0 0 
0.15935 -0.317225 0.793495 0 0 0 
0.337617 0.20976 0.688435 0 0 0 
0.260552 0.018281 0.726305 0 0 0 
0.037502 0.216182 0.70958 0 0 0 
0.035569 0.207996 0.711822 0 0 0 
0.006174 -0.119644 0.878726 0 0 0 
0.051891 0.207992 0.689595 0 0 0 
0.19537 0.06413 0.691457 0 0 0 
0.120351 0.081762 0.700618 0 0 0 
0.054884 0.208099 0.686373 0 0 0 
0.193946 0.07092 0.691242 0 0 0 
0.01224 0.153286 0.785612 0 0 0 
0.240372 0.191136 0.630968 0 0 0 
0.239378 0.064223 0.691123 0 0 0 
0.355949 0.018094 0.847575 0 0 0 
0.358446 0.012494 0.850183 0 0 0 
0.372049 -0.001301 0.851649 0 0 0 
0.047418 -0.200223 0.78206 0 0 0 
0.34168 0.202273 0.679577 0 0 0 
0.069063 0.157872 0.719123 0 0 0 
0.08224 0.157478 0.707758 0 0 0 
0.095509 0.128552 0.715242 0 0 0 
0.143853 0.090383 0.708635 0 0 0 
0.340796 0.204562 0.671843 0 0 0 
0.103334 0.195667 0.648365 0 0 0 
0.175104 0.076506 0.706 0 0 0 
0.312922 0.058413 0.770291 0 0 0 
0.136316 0.190534 0.630423 0 0 0 
0.062997 -0.160525 0.814873 0 0 0 
0.055733 -0.155269 0.817003 0 0 0 
0.108641 -0.125518 0.896857 0 0 0 
0.090931 -0.113751 0.890333 0 0 0 
0.109102 -0.113192 0.907504 0 0 0 
0.109674 -0.037856 0.831435 0 0 0 
0.090521 -0.301111 0.906446 0 0 0 
0.377837 0.167483 0.722479 0 0 0 
0.110699 -0.027194 0.799034 0 0 0 
0.224061 0.194761 0.644565 0 0 0 
0.254411 0.141161 0.640119 0 0 0 
0.326847 -0.256731 0.837361 0 0 0 
0.245483 0.185443 0.624675 0 0 0 
0.101568 -0.366149 0.859292 0 0 0 
0.177608 -0.045821 0.742231 0 0 0 
0.239991 0.190232 0.628452 0 0 0 
0.216931 -0.212183 0.837892 0 0 0 
0.257702 0.18993 0.628151 0 0 0 
0.314274 0.110204 0.695005 0 0 0 
0.220014 0.170683 0.618924 0 0 0 
0.202965 -0.36632 0.806758 0 0 0 
0.293932 0.201738 0.663361 0 0 0 
0.322354 0.202344 0.669539 0 0 0 
0.199943 0.184868 0.647 0 0 0 
0.319161 0.10537 0.770201 0 0 0 
0.062699 0.161955 0.723897 0 0 0 
0.348462 -0.020511 0.872312 0 0 0 
0.30878 -0.160821 0.879052 0 0 0 
0.325382 0.1045 0.769466 0 0 0 
0.325246 0.201671 0.671416 0 0 0 
0.15035 0.062359 0.71491 0 0 0 
0.118517 -0.354423 0.803059 0 0 0 
0.035669 0.212655 0.712425 0 0 0 
0.291064 -0.307421 0.830443 0 0 0 
0.234586 -0.279784 0.803849 0 0 0 
0.097435 -0.176367 0.768444 0 0 0 
0.096962 -0.170798 0.776206 0 0 0 
0.046785 -0.111634 0.881393 0 0 0 
0.029074 0.152429 0.753274 0 0 0 
0.181204 0.041419 0.705626 0 0 0 
0.280031 -0.309583 0.822365 0 0 0 
0.043653 0.188285 0.715983 0 0 0 
0.399746 -0.194042 0.929941 0 0 0 
0.046314 0.181769 0.706556 0 0 0 
0.203769 0.019714 0.703566 0 0 0 
0.137801 0.177186 0.616 0 0 0 
0.051486 -0.142132 0.849029 0 0 0 
0.353381 -0.147888 0.931475 0 0 0 
0.356439 -0.13383 0.916114 0 0 0 
0.052118 0.172018 0.706763 0 0 0 
0.115223 0.173216 0.643735 0 0 0 
0.211407 0.012387 0.705767 0 0 0 
0.32549 -0.211069 0.873087 0 0 0 
0.024946 0.151475 0.759183 0 0 0 
0.187451 0.035919 0.704635 0 0 0 
0.125811 0.190223 0.636314 0 0 0 
0.090352 -0.2794 0.874345 0 0 0 
0.068545 -0.256813 0.871638 0 0 0 
0.214345 0.003643 0.709212 0 0 0 
0.096085 -0.285816 0.874756 0 0 0 
0.344053 0.207992 0.694183 0 0 0 
0.057294 -0.127202 0.862507 0 0 0 
0.347543 0.20757 0.695894 0 0 0 
0.169407 0.093602 0.682626 0 0 0 
0.081023 0.093239 0.775788 0 0 0 
0.259895 0.143717 0.647269 0 0 0 
0.070023 0.196736 0.661364 0 0 0 
0.228755 0.186928 0.629575 0 0 0 
0.326837 -0.193536 0.889763 0 0 0 
0.073873 0.1052 0.751185 0 0 0 
0.092767 0.088069 0.753869 0 0 0 
0.074016 0.196175 0.658738 0 0 0 
0.078724 0.103005 0.753703 0 0 0 
0.091079 0.094295 0.751163 0 0 0 
0.09192 0.081322 0.764251 0 0 0 
0.098538 -0.343298 0.873558 0 0 0 
0.077801 0.197431 0.657636 0 0 0 
0.119984 0.191386 0.642807 0 0 0 
0.155172 -0.360567 0.795565 0 0 0 
0.046042 -0.124774 0.867393 0 0 0 
0.130079 0.19083 0.634989 0 0 0 
0.15492 0.133547 0.678365 0 0 0 
0.176385 0.069463 0.704667 0 0 0 
0.138458 0.189326 0.627309 0 0 0 
0.114392 -0.177568 0.820071 0 0 0 
-0.008227 -0.122426 0.888306 0 0 0 
0.143548 0.188118 0.62267 0 0 0 
0.355587 -0.006339 0.871245 0 0 0 
0.337254 -0.238724 0.848292 0 0 0 
0.142856 0.184846 0.619788 0 0 0 
0.357359 0.086935 0.77765 0 0 0 
0.336902 -0.3492 0.838183 0 0 0 
0.051509 -0.130493 0.861565 0 0 0 
0.052035 -0.107791 0.884242 0 0 0 
0.148801 0.184846 0.619726 0 0 0 
0.170468 0.062447 0.715251 0 0 0 
0.165156 -0.366197 0.799373 0 0 0 
0.159758 0.184551 0.620242 0 0 0 
0.262411 0.166713 0.623106 0 0 0 
0.221097 0.190197 0.637473 0 0 0 
0.278417 0.055237 0.720032 0 0 0 
0.11984 -0.285863 0.827447 0 0 0 
0.263028 0.144225 0.643215 0 0 0 
0.235014 0.189628 0.628111 0 0 0 
0.054067 0.202263 0.685968 0 0 0 
0.22275 0.138926 0.643484 0 0 0 
0.291917 0.195511 0.656246 0 0 0 
0.365261 0.149968 0.723769 0 0 0 
0.29255 0.195511 0.660465 0 0 0 
0.119781 0.156099 0.689242 0 0 0 
0.343761 -0.372202 0.842373 0 0 0 
0.341036 0.202273 0.683407 0 0 0 
0.04445 0.207731 0.699 0 0 0 
0.350047 0.209733 0.699042 0 0 0 
0.136633 -0.101699 0.860737 0 0 0 
0.05571 0.202382 0.682516 0 0 0 
0.067485 0.196736 0.664822 0 0 0 
0.069984 0.110507 0.753635 0 0 0 
0.098419 0.080765 0.753758 0 0 0 
0.26334 -0.128662 0.829091 0 0 0 
0.296079 0.147819 0.657817 0 0 0 
0.172148 0.070334 0.706374 0 0 0 
0.278944 -0.010588 0.759235 0 0 0 
0.236045 -0.266854 0.808242 0 0 0 
0.411293 -0.164895 0.918631 0 0 0 
0.136001 0.185443 0.624319 0 0 0 
0.183295 0.190475 0.642798 0 0 0 
0.149448 -0.232633 0.818758 0 0 0 
0.187902 0.190772 0.644274 0 0 0 
0.000275 -0.123979 0.879505 0 0 0 
0.085317 0.192575 0.647686 0 0 0 
0.087013 0.069091 0.770047 0 0 0 
0.090965 0.190772 0.644962 0 0 0 
0.132266 0.188129 0.628688 0 0 0 
0.131635 0.184842 0.625695 0 0 0 
0.297429 0.144708 0.660817 0 0 0 
0.095933 -0.090321 0.946312 0 0 0 
0.218435 0.190475 0.638914 0 0 0 
0.104947 -0.367662 0.851563 0 0 0 
0.229961 0.188129 0.628808 0 0 0 
0.272175 0.188129 0.628699 0 0 0 
0.286317 0.195307 0.645452 0 0 0 
0.177103 -0.360223 0.802 0 0 0 
0.217127 -0.320083 0.805192 0 0 0 
0.250314 -0.287047 0.805719 0 0 0 
0.253581 -0.272829 0.812543 0 0 0 
0.12015 0.165899 0.654686 0 0 0 
0.131511 0.167769 0.643111 0 0 0 
0.267953 0.024685 0.72983 0 0 0 
0.169413 -0.366347 0.801119 0 0 0 
0.234094 -0.29921 0.812444 0 0 0 
0.233711 -0.038938 0.747061 0 0 0 
0.124265 0.16449 0.645998 0 0 0 
0.153556 0.168277 0.620455 0 0 0 
0.159758 0.173883 0.620758 0 0 0 
0.330419 0.201588 0.673579 0 0 0 
0.163856 0.181578 0.623008 0 0 0 
0.297905 0.071699 0.744296 0 0 0 
0.148708 0.064587 0.716495 0 0 0 
0.051165 0.168151 0.72323 0 0 0 
0.154498 0.077047 0.713123 0 0 0 
0.143198 0.167915 0.632192 0 0 0 
0.32379 0.199495 0.66781 0 0 0 
0.310831 0.09496 0.760628 0 0 0 
0.330784 0.093339 0.780566 0 0 0 
0.301921 -0.343453 0.827681 0 0 0 
0.070272 -0.261211 0.879087 0 0 0 
0.367044 -0.13946 0.92793 0 0 0 
0.206284 0.003632 0.707425 0 0 0 
0.340744 0.205476 0.685574 0 0 0 
0.088504 0.138653 0.726422 0 0 0 
0.347836 0.205776 0.691943 0 0 0 
0.338886 0.19733 0.673033 0 0 0 
0.040374 0.185625 0.724419 0 0 0 
0.13106 0.186928 0.630183 0 0 0 
0.055449 0.16587 0.722613 0 0 0 
0.200252 0.19072 0.648091 0 0 0 
0.26832 0.017733 0.731 0 0 0 
0.24045 -0.205322 0.855253 0 0 0 
0.203875 0.174443 0.624809 0 0 0 
0.135684 0.023976 0.708817 0 0 0 
0.142893 0.024044 0.712122 0 0 0 
0.171468 -0.028492 0.735505 0 0 0 
0.250342 -0.188027 0.858425 0 0 0 
0.222121 0.186928 0.629932 0 0 0 
0.216606 0.184539 0.627058 0 0 0 
0.171608 -0.227382 0.843122 0 0 0 
0.314531 0.184934 0.665941 0 0 0 
0.331636 0.092741 0.775357 0 0 0 
0.251265 0.075965 0.700726 0 0 0 
0.331865 0.195508 0.672683 0 0 0 
0.297809 0.075032 0.74748 0 0 0 
0.056041 0.1656 0.71173 0 0 0 
0.154498 0.070252 0.712607 0 0 0 
0.143039 0.168113 0.625936 0 0 0 
0.325069 0.195675 0.666183 0 0 0 
0.145606 -0.03313 0.731064 0 0 0 
0.143002 -0.337591 0.791626 0 0 0 
0.351917 -0.297021 0.851413 0 0 0 
0.074409 0.17814 0.644344 0 0 0 
0.307624 0.116276 0.667858 0 0 0 
0.085831 0.023872 0.798667 0 0 0 
0.052401 0.202787 0.689301 0 0 0 
0.088504 0.134501 0.725719 0 0 0 
0.032423 0.21346 0.727768 0 0 0 
0.075049 0.194326 0.655695 0 0 0 
0.354688 -0.34284 0.843808 0 0 0 
0.113242 0.190279 0.65407 0 0 0 
0.11656 0.185439 0.650333 0 0 0 
0.294665 0.08714 0.737832 0 0 0 
0.296699 0.098174 0.744004 0 0 0 
0.126232 0.184804 0.632667 0 0 0 
0.236142 -0.342241 0.812808 0 0 0 
0.222989 0.184551 0.622111 0 0 0 
0.416164 -0.208412 0.918785 0 0 0 
0.298712 0.196208 0.665331 0 0 0 
0.308822 0.196501 0.671686 0 0 0 
0.345039 0.202787 0.692012 0 0 0 
0.327036 0.040952 0.794182 0 0 0 
0.033201 0.207361 0.746965 0 0 0 
0.335304 0.129607 0.684908 0 0 0 
0.183247 -0.285435 0.792091 0 0 0 
0.024792 0.209155 0.73451 0 0 0 
0.102648 -0.188087 0.77593 0 0 0 
0.069434 -0.170756 0.791543 0 0 0 
0.029826 0.214221 0.734063 0 0 0 
0.405775 -0.157076 0.957473 0 0 0 
0.331219 0.198078 0.676296 0 0 0 
0.354429 0.064051 0.786192 0 0 0 
0.151509 -0.20289 0.860889 0 0 0 
0.025802 0.205324 0.729785 0 0 0 
0.303446 -0.350619 0.830091 0 0 0 
0.075457 -0.338153 0.958849 0 0 0 
0.205798 -0.136629 0.843504 0 0 0 
0.205273 -0.102521 0.809455 0 0 0 
0.027712 0.212117 0.729779 0 0 0 
0.069179 0.190472 0.660393 0 0 0 
0.360274 -0.136935 0.926593 0 0 0 
0.038804 0.188695 0.744498 0 0 0 
0.122116 0.186241 0.639516 0 0 0 
0.034035 -0.130859 0.859505 0 0 0 
0.034217 -0.107791 0.884575 0 0 0 
0.128648 0.184527 0.628858 0 0 0 
0.113416 -0.371828 0.815817 0 0 0 
0.296346 0.13882 0.659434 0 0 0 
0.133991 0.182767 0.623129 0 0 0 
0.057198 0.133325 0.791903 0 0 0 
0.062793 0.133065 0.786435 0 0 0 
0.358135 0.174827 0.680384 0 0 0 
0.171931 0.167508 0.642658 0 0 0 
0.136912 0.178928 0.619565 0 0 0 
0.029875 0.155713 0.753556 0 0 0 
0.047191 0.177797 0.712917 0 0 0 
0.16406 0.056218 0.714626 0 0 0 
0.073298 0.059231 0.803333 0 0 0 
0.142884 0.178659 0.615122 0 0 0 
0.245952 -0.255287 0.824 0 0 0 
0.095924 -0.166761 0.793003 0 0 0 
0.029113 0.160537 0.753425 0 0 0 
0.148081 0.17924 0.616667 0 0 0 
0.171078 -0.367264 0.799274 0 0 0 
0.257162 -0.270943 0.812202 0 0 0 
0.123534 0.164543 0.640303 0 0 0 
0.160095 0.178928 0.62061 0 0 0 
0.17765 -0.358245 0.800384 0 0 0 
0.132518 0.168978 0.635393 0 0 0 
0.223463 0.171101 0.625286 0 0 0 
0.211897 0.182474 0.625853 0 0 0 
0.207148 0.182076 0.631972 0 0 0 
0.211225 -0.366456 0.809061 0 0 0 
0.211556 0.179217 0.620553 0 0 0 
0.216824 0.178955 0.61393 0 0 0 
0.119582 -0.271772 0.803244 0 0 0 
0.222484 0.178659 0.615253 0 0 0 
0.055681 0.14745 0.770796 0 0 0 
0.120789 0.184912 0.643244 0 0 0 
0.171377 -0.2982 0.804597 0 0 0 
0.179086 -0.293596 0.805365 0 0 0 
0.166238 -0.296966 0.808667 0 0 0 
0.166167 -0.039598 0.745484 0 0 0 
0.234338 0.179199 0.621816 0 0 0 
0.226022 0.176898 0.616002 0 0 0 
0.16937 0.106056 0.67532 0 0 0 
0.24014 -0.360618 0.815365 0 0 0 
0.119731 -0.251393 0.804496 0 0 0 
0.132351 -0.027753 0.752656 0 0 0 
0.290841 -0.175537 0.857301 0 0 0 
0.239539 0.178624 0.621425 0 0 0 
0.267172 0.161371 0.627723 0 0 0 
0.245729 -0.358822 0.816393 0 0 0 
0.308313 -0.115696 0.860526 0 0 0 
0.308536 -0.084762 0.832664 0 0 0 
0.125464 -0.03287 0.757376 0 0 0 
0.143141 -0.272023 0.796817 0 0 0 
0.034508 -0.154698 0.811939 0 0 0 
0.309492 -0.136215 0.883678 0 0 0 
0.245493 0.176846 0.620758 0 0 0 
0.13703 -0.021968 0.729183 0 0 0 
0.110422 -0.174117 0.809801 0 0 0 
0.056907 0.184956 0.671817 0 0 0 
0.137513 -0.349243 0.790726 0 0 0 
0.177653 -0.246474 0.808699 0 0 0 
0.171378 -0.245498 0.814848 0 0 0 
0.234165 -0.188406 0.856504 0 0 0 
0.011826 -0.131163 0.861557 0 0 0 
0.012142 -0.1102 0.884061 0 0 0 
0.326449 0.033621 0.813875 0 0 0 
0.170468 0.021446 0.716061 0 0 0 
0.014635 -0.111508 0.881557 0 0 0 
0.055381 0.197687 0.683467 0 0 0 
0.066515 0.190646 0.664129 0 0 0 
0.132157 0.178337 0.620274 0 0 0 
0.045883 -0.129296 0.865 0 0 0 
0.166747 0.167247 0.640909 0 0 0 
0.160461 0.167074 0.637484 0 0 0 
0.183295 0.184952 0.64295 0 0 0 
0.053834 -0.150929 0.832425 0 0 0 
0.246284 0.179794 0.623333 0 0 0 
0.257861 0.180371 0.624749 0 0 0 
0.291782 0.080499 0.73467 0 0 0 
0.111518 -0.219569 0.846948 0 0 0 
0.317871 0.122014 0.667699 0 0 0 
0.343495 0.196821 0.68307 0 0 0 
0.244825 -0.010198 0.729909 0 0 0 
0.074191 -0.170966 0.786443 0 0 0 
0.050741 0.173063 0.739178 0 0 0 
0.030531 0.207908 0.730253 0 0 0 
0.090721 -0.348521 0.905572 0 0 0 
0.171428 -0.062925 0.744414 0 0 0 
0.284942 -0.061376 0.817767 0 0 0 
0.329029 -0.040393 0.83691 0 0 0 
0.269079 -0.245854 0.831726 0 0 0 
0.188486 0.184582 0.645059 0 0 0 
0.127027 0.167576 0.624065 0 0 0 
0.311291 0.194346 0.669 0 0 0 
0.105443 0.012667 0.733963 0 0 0 
0.327527 0.001926 0.846633 0 0 0 
0.176876 -0.227921 0.844626 0 0 0 
0.314837 0.190582 0.666959 0 0 0 
0.143244 -0.204067 0.866393 0 0 0 
0.337082 0.144334 0.67697 0 0 0 
0.341481 0.19502 0.679265 0 0 0 
0.192202 0.186432 0.646091 0 0 0 
0.205799 -0.291801 0.796747 0 0 0 
0.126676 -0.232633 0.818817 0 0 0 
0.331218 -0.136342 0.907069 0 0 0 
0.331175 0.191154 0.670799 0 0 0 
0.017638 -0.165634 0.825282 0 0 0 
0.325069 0.190582 0.666667 0 0 0 
0.035184 0.201568 0.712572 0 0 0 
0.349024 -0.371838 0.843869 0 0 0 
0.085249 -0.192509 0.770667 0 0 0 
0.124822 0.179092 0.631134 0 0 0 
0.085765 -0.187606 0.769253 0 0 0 
0.126637 0.17884 0.626621 0 0 0 
0.350798 -0.142436 0.934639 0 0 0 
0.308442 0.189946 0.667183 0 0 0 
0.228476 -0.125393 0.818355 0 0 0 
0.236607 -0.120857 0.818484 0 0 0 
0.289217 -0.062233 0.818434 0 0 0 
0.330185 0.189946 0.668052 0 0 0 
0.268088 -0.010449 0.747484 0 0 0 
0.125564 -0.227994 0.822122 0 0 0 
0.3253 -0.138577 0.905264 0 0 0 
0.308027 -0.045146 0.821578 0 0 0 
0.328458 0.193358 0.669516 0 0 0 
0.218911 0.098969 0.687152 0 0 0 
0.153996 0.177474 0.617314 0 0 0 
0.06264 -0.131219 0.856516 0 0 0 
0.095643 0.132832 0.716575 0 0 0 
0.234555 -0.039917 0.751151 0 0 0 
0.298615 0.071699 0.7494 0 0 0 
0.079454 -0.342923 0.946303 0 0 0 
0.330804 -0.240825 0.845305 0 0 0 
0.031237 0.167501 0.753672 0 0 0 
0.205795 -0.366456 0.808817 0 0 0 
0.207459 0.177416 0.6217 0 0 0 
0.171199 -0.267124 0.796192 0 0 0 
0.256438 0.177416 0.622444 0 0 0 
0.082196 0.114922 0.735816 0 0 0 
0.104381 0.091337 0.736425 0 0 0 
0.051859 0.133063 0.826935 0 0 0 
0.271788 0.173163 0.640877 0 0 0 
0.27368 0.178871 0.638904 0 0 0 
0.299157 0.190728 0.665198 0 0 0 
0.125346 -0.226524 0.830301 0 0 0 
0.323567 -0.138577 0.893525 0 0 0 
0.256363 0.012702 0.724942 0 0 0 
0.275653 -0.033512 0.787618 0 0 0 
0.327862 -0.14741 0.908164 0 0 0 
0.338174 0.190009 0.67266 0 0 0 
0.247419 -0.024548 0.743688 0 0 0 
0.290689 -0.1883 0.862198 0 0 0 
0.293815 0.184173 0.658703 0 0 0 
0.033486 0.208756 0.729258 0 0 0 
0.382324 -0.1827 0.931 0 0 0 
0.051717 0.190403 0.684639 0 0 0 
0.26234 -0.316669 0.815878 0 0 0 
0.039615 -0.131065 0.855767 0 0 0 
0.130757 0.175095 0.619667 0 0 0 
0.107239 -0.005634 0.77443 0 0 0 
0.164903 0.167247 0.639726 0 0 0 
0.143201 0.143237 0.680798 0 0 0 
0.131179 0.155391 0.683435 0 0 0 
0.025842 0.210596 0.735099 0 0 0 
0.248306 -0.011625 0.733314 0 0 0 
0.102914 -0.190054 0.78071 0 0 0 
0.066477 -0.167182 0.794998 0 0 0 
0.02775 0.207488 0.734472 0 0 0 
0.314127 -0.348707 0.832889 0 0 0 
0.076163 -0.171811 0.783382 0 0 0 
0.028213 -0.111761 0.881989 0 0 0 
0.044391 0.153037 0.755091 0 0 0 
0.029258 0.203948 0.727965 0 0 0 
0.182043 0.05745 0.705374 0 0 0 
0.151629 -0.214231 0.858667 0 0 0 
0.024928 0.207488 0.742637 0 0 0 
0.097364 -0.365451 0.872314 0 0 0 
0.376302 -0.24567 0.862183 0 0 0 
0.376161 -0.21724 0.887151 0 0 0 
0.103095 -0.152816 0.860011 0 0 0 
0.136633 -0.118975 0.861122 0 0 0 
0.066951 0.185643 0.659887 0 0 0 
0.23905 -0.251529 0.822606 0 0 0 
0.017846 0.147282 0.796167 0 0 0 
0.117332 0.17452 0.642361 0 0 0 
0.120891 0.178313 0.636988 0 0 0 
0.285059 0.001715 0.753763 0 0 0 
0.229393 -0.03363 0.739616 0 0 0 
0.177063 0.173216 0.644333 0 0 0 
0.174803 0.180752 0.640169 0 0 0 
0.245692 0.173603 0.61912 0 0 0 
0.039995 0.150676 0.755032 0 0 0 
0.038803 0.196335 0.70569 0 0 0 
0.181204 0.05289 0.705656 0 0 0 
0.281365 -0.29751 0.818333 0 0 0 
0.229034 -0.245439 0.820333 0 0 0 
0.234607 -0.243195 0.825507 0 0 0 
0.201601 -0.199315 0.840758 0 0 0 
0.071523 0.069699 0.806362 0 0 0 
0.105074 -0.009405 0.781763 0 0 0 
0.326067 -0.372749 0.837849 0 0 0 
0.199825 -0.233833 0.826044 0 0 0 
0.188618 -0.232675 0.836183 0 0 0 
0.160118 0.161269 0.643817 0 0 0 
0.164388 0.162457 0.638941 0 0 0 
0.126212 0.173603 0.621123 0 0 0 
0.182395 0.17915 0.643568 0 0 0 
0.251231 0.173323 0.620455 0 0 0 
0.313798 0.114577 0.68407 0 0 0 
0.25717 0.086873 0.711032 0 0 0 
0.183168 0.012492 0.712667 0 0 0 
0.165301 -0.286476 0.797254 0 0 0 
0.285937 0.174026 0.655374 0 0 0 
0.108757 0.173753 0.648699 0 0 0 
0.0386 0.14307 0.801063 0 0 0 
0.205878 0.024341 0.700586 0 0 0 
0.234711 -0.182474 0.854151 0 0 0 
0.205406 -0.067798 0.768468 0 0 0 
0.064946 0.184731 0.661049 0 0 0 
0.217809 0.150294 0.632393 0 0 0 
0.124234 0.173213 0.62442 0 0 0 
0.12281 -0.34299 0.794183 0 0 0 
0.102829 -0.093745 0.929575 0 0 0 
0.261814 0.173254 0.627094 0 0 0 
0.279627 0.17634 0.648345 0 0 0 
0.216964 -0.241905 0.816607 0 0 0 
0.358963 -0.171114 0.925681 0 0 0 
0.10868 0.179378 0.654192 0 0 0 
0.286429 0.179245 0.647639 0 0 0 
0.306563 0.024261 0.782676 0 0 0 
0.086988 0.008076 0.804124 0 0 0 
0.107285 -0.302615 0.871512 0 0 0 
0.170798 -0.216335 0.847233 0 0 0 
0.320112 0.18394 0.66597 0 0 0 
0.054245 0.17457 0.679627 0 0 0 
0.085892 0.173292 0.643425 0 0 0 
0.072891 0.179588 0.646959 0 0 0 
0.086657 0.041812 0.776498 0 0 0 
0.106926 0.035678 0.756627 0 0 0 
0.167019 0.024078 0.713425 0 0 0 
0.164746 0.014026 0.721151 0 0 0 
0.086244 0.035273 0.781849 0 0 0 
0.087402 -0.205872 0.780551 0 0 0 
0.197776 0.180883 0.646393 0 0 0 
0.308442 0.184853 0.667374 0 0 0 
0.034796 0.15581 0.752052 0 0 0 
0.035619 0.19677 0.712242 0 0 0 
0.096094 0.023213 0.773948 0 0 0 
0.315311 -0.211514 0.866242 0 0 0 
0.263438 -0.015391 0.746749 0 0 0 
0.363341 -0.339998 0.851891 0 0 0 
0.075538 0.158686 0.740817 0 0 0 
0.100428 0.153618 0.709979 0 0 0 
0.103107 0.150517 0.706435 0 0 0 
0.146012 0.153661 0.664063 0 0 0 
0.120014 0.173445 0.631064 0 0 0 
0.096969 -0.326112 0.87945 0 0 0 
0.02591 0.174777 0.766769 0 0 0 
0.30186 0.184493 0.667199 0 0 0 
0.330314 0.093307 0.784695 0 0 0 
0.028052 0.207613 0.751613 0 0 0 
0.197305 0.15601 0.623169 0 0 0 
0.030947 0.207892 0.746436 0 0 0 
0.051424 0.142636 0.786245 0 0 0 
0.257893 0.137345 0.661516 0 0 0 
0.05108 0.19095 0.687877 0 0 0 
0.280136 -0.337786 0.820305 0 0 0 
0.067193 0.179104 0.653758 0 0 0 
0.200444 0.173069 0.631452 0 0 0 
0.201256 0.172893 0.627366 0 0 0 
0.070922 0.132113 0.777923 0 0 0 
0.093811 -0.319993 0.89742 0 0 0 
0.137028 -0.26822 0.796808 0 0 0 
0.232837 0.173169 0.625417 0 0 0 
0.101788 0.06064 0.762758 0 0 0 
0.080125 0.0588 0.786817 0 0 0 
0.266568 0.173396 0.632902 0 0 0 
0.27051 0.171742 0.640425 0 0 0 
0.271176 0.178034 0.636315 0 0 0 
0.240868 0.15019 0.627002 0 0 0 
0.321063 0.121462 0.676941 0 0 0 
0.103505 0.17848 0.653151 0 0 0 
0.109357 0.023791 0.724397 0 0 0 
0.107927 0.012474 0.71276 0 0 0 
0.011873 0.193855 0.798449 0 0 0 
0.183139 0.173051 0.647998 0 0 0 
0.381463 -0.235495 0.869667 0 0 0 
0.165617 0.173344 0.632472 0 0 0 
0.130751 -0.078448 0.877881 0 0 0 
0.129362 -0.067708 0.865161 0 0 0 
0.04854 0.189322 0.694995 0 0 0 
0.04974 0.191446 0.694063 0 0 0 
0.089989 0.012509 0.796968 0 0 0 
0.054572 0.18707 0.674922 0 0 0 
0.296979 0.121813 0.659484 0 0 0 
0.312418 0.112028 0.678918 0 0 0 
0.054502 -0.224863 0.795288 0 0 0 
0.111518 -0.221185 0.846948 0 0 0 
0.314365 0.121649 0.666213 0 0 0 
0.216588 0.168681 0.614607 0 0 0 
0.147936 -0.234608 0.815597 0 0 0 
0.257649 0.029646 0.717566 0 0 0 
0.281185 0.029933 0.740253 0 0 0 
0.204766 -0.299684 0.808364 0 0 0 
0.331865 0.172385 0.671602 0 0 0 
0.029732 0.212388 0.765136 0 0 0 
0.069434 -0.232059 0.79258 0 0 0 
0.03132 0.207525 0.757004 0 0 0 
0.032468 0.207361 0.752367 0 0 0 
0.064986 0.1793 0.656301 0 0 0 
0.365169 0.13091 0.72777 0 0 0 
0.139799 0.16923 0.617253 0 0 0 
0.154715 0.058102 0.712758 0 0 0 
0.143116 0.168955 0.616627 0 0 0 
0.351607 -0.027487 0.878718 0 0 0 
0.148081 0.16923 0.617183 0 0 0 
0.052542 0.168151 0.718028 0 0 0 
0.126973 0.16706 0.643543 0 0 0 
0.148801 0.167685 0.620183 0 0 0 
0.153778 0.064406 0.715314 0 0 0 
0.12015 0.164649 0.654686 0 0 0 
0.133769 0.163219 0.642817 0 0 0 
0.094994 -0.359827 0.887493 0 0 0 
0.027963 0.202189 0.761557 0 0 0 
0.202299 0.171236 0.621675 0 0 0 
0.263315 -0.02649 0.758374 0 0 0 
0.228943 -0.060525 0.775702 0 0 0 
0.20564 0.168407 0.614 0 0 0 
0.29185 0.180201 0.654699 0 0 0 
0.293556 0.179219 0.66031 0 0 0 
0.279439 -0.03712 0.796952 0 0 0 
0.241518 -0.154483 0.835667 0 0 0 
0.159289 0.110577 0.678726 0 0 0 
0.155927 0.160768 0.641667 0 0 0 
0.125821 0.168549 0.621242 0 0 0 
0.245669 0.141228 0.625941 0 0 0 
0.170387 -0.092359 0.836939 0 0 0 
0.079473 0.052866 0.786658 0 0 0 
0.100195 0.052572 0.761183 0 0 0 
0.257337 -0.36596 0.820444 0 0 0 
0.176973 -0.092027 0.834183 0 0 0 
0.269901 0.171742 0.636973 0 0 0 
0.03035 0.207173 0.763737 0 0 0 
0.053517 0.169428 0.747569 0 0 0 
0.107982 -0.176495 0.775149 0 0 0 
0.040891 0.190541 0.706597 0 0 0 
0.177137 0.054239 0.70697 0 0 0 
0.361025 -0.293124 0.860645 0 0 0 
0.042068 0.193092 0.703181 0 0 0 
0.188579 -0.010002 0.717274 0 0 0 
0.064986 0.168657 0.656941 0 0 0 
0.079851 0.174791 0.644 0 0 0 
0.159242 0.020135 0.719011 0 0 0 
0.100476 -0.005801 0.79536 0 0 0 
0.359655 -0.256852 0.850656 0 0 0 
0.358441 -0.21222 0.897939 0 0 0 
0.257581 0.168277 0.620123 0 0 0 
0.257273 0.144449 0.642844 0 0 0 
0.031736 0.207361 0.757769 0 0 0 
0.034564 0.196068 0.740369 0 0 0 
0.228441 0.046618 0.693301 0 0 0 
0.039942 0.156944 0.752726 0 0 0 
0.037608 0.193786 0.710965 0 0 0 
0.23297 0.003668 0.713516 0 0 0 
0.234107 0.155869 0.636747 0 0 0 
0.074911 0.174791 0.644183 0 0 0 
0.086434 0.052799 0.775531 0 0 0 
0.084063 0.024021 0.803758 0 0 0 
0.040418 -0.176723 0.775816 0 0 0 
0.042375 -0.171169 0.771603 0 0 0 
0.121238 0.167845 0.625719 0 0 0 
0.284742 0.113016 0.694027 0 0 0 
0.159333 0.169363 0.626022 0 0 0 
0.05364 0.156115 0.762183 0 0 0 
0.196949 0.155851 0.621032 0 0 0 
0.039741 0.14592 0.763647 0 0 0 
0.200093 0.167452 0.626462 0 0 0 
0.202108 0.166063 0.61579 0 0 0 
0.108197 0.016364 0.762353 0 0 0 
0.155757 -0.28567 0.799871 0 0 0 
0.129976 -0.2877 0.819505 0 0 0 
0.252429 0.143102 0.636242 0 0 0 
0.229482 0.172467 0.630119 0 0 0 
0.13148 -0.004648 0.736183 0 0 0 
0.234266 0.168113 0.625701 0 0 0 
0.263008 0.167308 0.626703 0 0 0 
0.068181 0.110821 0.764522 0 0 0 
0.096976 0.092983 0.752626 0 0 0 
0.205665 0.123475 0.676374 0 0 0 
0.145934 0.153471 0.655778 0 0 0 
0.141501 0.160273 0.653717 0 0 0 
0.165504 -0.216846 0.849 0 0 0 
0.091754 -0.142803 0.852274 0 0 0 
0.32075 0.178855 0.667425 0 0 0 
0.158881 0.150613 0.661091 0 0 0 
0.039703 0.189994 0.711548 0 0 0 
0.175847 0.053114 0.710041 0 0 0 
0.068648 0.17429 0.649183 0 0 0 
0.098212 0.173753 0.647192 0 0 0 
0.046658 0.175931 0.702193 0 0 0 
0.211473 -0.031869 0.731575 0 0 0 
0.092198 -0.354556 0.896192 0 0 0 
0.068513 -0.210987 0.773686 0 0 0 
0.181673 0.175334 0.645878 0 0 0 
0.232389 -0.014958 0.725659 0 0 0 
0.399843 -0.209092 0.921817 0 0 0 
0.302233 0.178855 0.666314 0 0 0 
0.204015 -0.315829 0.800877 0 0 0 
0.165951 -0.227382 0.842726 0 0 0 
0.163876 -0.221708 0.84804 0 0 0 
0.313727 0.178855 0.667123 0 0 0 
0.182332 0.132508 0.675482 0 0 0 
0.417563 -0.180878 0.939393 0 0 0 
0.330967 0.178855 0.667002 0 0 0 
0.109657 -0.174117 0.803999 0 0 0 
0.056907 0.179184 0.671469 0 0 0 
0.172636 0.02999 0.708122 0 0 0 
0.177388 0.023909 0.708355 0 0 0 
0.114517 0.175877 0.647602 0 0 0 
0.222016 0.167783 0.626439 0 0 0 
0.171199 -0.271682 0.795817 0 0 0 
0.284926 0.175605 0.649548 0 0 0 
0.20596 0.029609 0.699183 0 0 0 
0.086455 0.009573 0.800967 0 0 0 
0.183302 -0.25064 0.808565 0 0 0 
0.074043 0.161263 0.700496 0 0 0 
0.183105 -0.262464 0.798566 0 0 0 
0.085841 0.162858 0.688242 0 0 0 
0.242968 -0.145452 0.828829 0 0 0 
0.348854 -0.132904 0.935151 0 0 0 
0.349603 0.167614 0.683607 0 0 0 
0.30726 0.17993 0.668968 0 0 0 
0.334523 0.179392 0.668314 0 0 0 
0.34737 -0.366068 0.841063 0 0 0 
0.335023 0.181577 0.669647 0 0 0 
0.334638 -0.006245 0.858027 0 0 0 
0.256481 0.13567 0.660849 0 0 0 
0.130419 -0.021448 0.734618 0 0 0 
0.046591 0.18491 0.696128 0 0 0 
0.067923 0.171264 0.653778 0 0 0 
0.131635 0.168113 0.626329 0 0 0 
0.137256 0.168382 0.627294 0 0 0 
0.068944 -0.248535 0.837542 0 0 0 
0.177147 0.132508 0.676292 0 0 0 
0.05724 0.16716 0.707072 0 0 0 
0.217283 -0.062919 0.773509 0 0 0 
0.242137 0.166874 0.617274 0 0 0 
0.171204 -0.010072 0.721909 0 0 0 
0.02784 -0.182492 0.826264 0 0 0 
0.022887 -0.165178 0.815621 0 0 0 
0.303424 -0.129488 0.866251 0 0 0 
-0.019224 -0.105559 0.799037 0 0 0 
0.304686 -0.109525 0.842823 0 0 0 
0.304764 -0.104466 0.836119 0 0 0 
0.263606 0.167308 0.629593 0 0 0 
0.069726 0.109922 0.770498 0 0 0 
0.22805 -0.286027 0.80084 0 0 0 
0.042566 -0.129296 0.864423 0 0 0 
0.159558 0.167915 0.63193 0 0 0 
0.099423 0.019439 0.771699 0 0 0 
0.347431 0.005989 0.849425 0 0 0 
0.159657 -0.240053 0.81512 0 0 0 
0.040106 0.144319 0.770324 0 0 0 
0.198338 0.167915 0.630597 0 0 0 
0.318509 0.056279 0.771989 0 0 0 
0.082448 0.169522 0.645849 0 0 0 
0.064357 0.173039 0.655566 0 0 0 
0.153259 0.018104 0.718868 0 0 0 
0.30298 -0.275287 0.817556 0 0 0 
0.110796 0.041456 0.740067 0 0 0 
0.348655 -0.233067 0.854808 0 0 0 
0.044824 -0.183152 0.774485 0 0 0 
0.074992 0.138993 0.758635 0 0 0 
0.119291 0.164988 0.637247 0 0 0 
0.072777 0.127748 0.768637 0 0 0 
0.20564 0.161961 0.613575 0 0 0 
0.211526 0.161961 0.614618 0 0 0 
0.359811 0.171308 0.694073 0 0 0 
0.377464 -0.002965 0.855572 0 0 0 
0.360496 0.182501 0.682253 0 0 0 
0.358565 0.09298 0.776714 0 0 0 
0.360306 0.022809 0.843123 0 0 0 
0.142642 -0.23879 0.815495 0 0 0 
0.137333 -0.235184 0.816909 0 0 0 
0.308415 -0.187551 0.872973 0 0 0 
0.022213 0.196424 0.763942 0 0 0 
0.020776 0.203252 0.768096 0 0 0 
0.040096 -0.148007 0.830939 0 0 0 
0.030073 0.200933 0.758522 0 0 0 
0.135981 0.041477 0.708061 0 0 0 
0.143094 0.04109 0.712504 0 0 0 
0.262858 -0.029578 0.763122 0 0 0 
0.033489 0.195292 0.753109 0 0 0 
0.031653 0.202455 0.757921 0 0 0 
0.135981 0.046883 0.708566 0 0 0 
0.142893 0.047148 0.711443 0 0 0 
0.297511 -0.164159 0.861984 0 0 0 
0.116644 0.070334 0.708279 0 0 0 
0.303157 -0.23643 0.838061 0 0 0 
0.032256 0.196587 0.756832 0 0 0 
0.033114 0.202455 0.752087 0 0 0 
0.347346 -0.019688 0.842371 0 0 0 
0.064097 -0.319966 0.990459 0 0 0 
0.116644 0.075724 0.708704 0 0 0 
0.035332 0.190764 0.722528 0 0 0 
0.183105 -0.267795 0.797565 0 0 0 
0.284892 -0.22242 0.857059 0 0 0 
0.211797 0.149831 0.626593 0 0 0 
0.36547 -0.170781 0.929435 0 0 0 
0.063042 0.173358 0.660769 0 0 0 
0.079725 0.173403 0.647373 0 0 0 
0.080341 0.025065 0.800405 0 0 0 
0.110105 0.172333 0.645091 0 0 0 
0.028558 0.144236 0.797269 0 0 0 
0.388504 -0.217484 0.887898 0 0 0 
0.117143 0.167312 0.633091 0 0 0 
0.129466 0.168181 0.633514 0 0 0 
0.137002 0.16742 0.636869 0 0 0 
0.251482 -0.25686 0.824744 0 0 0 
0.139396 0.168446 0.634516 0 0 0 
0.329185 0.109186 0.771032 0 0 0 
0.153984 0.16179 0.632393 0 0 0 
0.148416 0.167047 0.630747 0 0 0 
0.154766 -0.027828 0.735556 0 0 0 
0.132609 -0.309684 0.79881 0 0 0 
0.132836 -0.302804 0.804425 0 0 0 
0.285589 0.133781 0.660607 0 0 0 
0.223787 0.165502 0.630749 0 0 0 
0.300143 0.118663 0.66086 0 0 0 
0.281365 0.149931 0.658968 0 0 0 
0.312105 -0.092027 0.845238 0 0 0 
0.232876 0.165502 0.63119 0 0 0 
0.283339 0.107397 0.715 0 0 0 
0.287599 0.092166 0.733137 0 0 0 
0.237487 0.167248 0.624745 0 0 0 
0.359512 0.042236 0.828751 0 0 0 
0.10652 -0.209694 0.827799 0 0 0 
0.268444 0.168181 0.632626 0 0 0 
0.111053 0.057161 0.729542 0 0 0 
0.286647 -0.171874 0.854839 0 0 0 
0.36751 0.04188 0.825407 0 0 0 
0.131844 -0.268557 0.797393 0 0 0 
0.269051 0.168181 0.636504 0 0 0 
0.109748 0.053397 0.73055 0 0 0 
0.269658 0.168181 0.640381 0 0 0 
0.120457 -0.142216 0.888918 0 0 0 
0.122196 -0.055791 0.804939 0 0 0 
0.171708 0.132956 0.675183 0 0 0 
0.313976 0.177901 0.671393 0 0 0 
0.143078 -0.213337 0.861253 0 0 0 
0.02102 0.167969 0.774385 0 0 0 
0.348639 -0.002965 0.859737 0 0 0 
0.342846 -0.01119 0.861123 0 0 0 
0.336196 -0.016157 0.861968 0 0 0 
0.32849 -0.027528 0.862532 0 0 0 
0.297928 0.046801 0.755128 0 0 0 
0.354223 0.181966 0.680303 0 0 0 
0.32701 -0.015138 0.848144 0 0 0 
0.116742 -0.342944 0.810717 0 0 0 
0.075514 -0.256304 0.844768 0 0 0 
0.115308 -0.21492 0.845274 0 0 0 
0.355397 0.182234 0.680667 0 0 0 
0.35467 0.092741 0.775697 0 0 0 
0.353879 0.024474 0.843312 0 0 0 
0.051869 0.178596 0.683091 0 0 0 
0.215518 0.16393 0.617318 0 0 0 
0.309191 -0.286048 0.820432 0 0 0 
0.351 -0.20949 0.899543 0 0 0 
0.255376 0.140191 0.644119 0 0 0 
0.257166 0.161507 0.619 0 0 0 
0.067153 -0.331417 0.981965 0 0 0 
0.068957 0.161784 0.740877 0 0 0 
0.353571 0.178072 0.680131 0 0 0 
0.113901 0.086995 0.711123 0 0 0 
0.194392 0.150586 0.643697 0 0 0 
0.354744 0.178984 0.680756 0 0 0 
0.053618 0.169143 0.707607 0 0 0 
0.115223 0.16706 0.643857 0 0 0 
0.191583 0.167935 0.643746 0 0 0 
0.340687 -0.135909 0.925974 0 0 0 
0.04938 0.146303 0.765215 0 0 0 
0.273894 0.052415 0.718909 0 0 0 
0.348795 -0.205418 0.900909 0 0 0 
0.278146 0.155948 0.64487 0 0 0 
0.261148 0.161768 0.621367 0 0 0 
0.306125 -0.176519 0.874581 0 0 0 
0.327395 -0.130956 0.900254 0 0 0 
0.02574 0.201198 0.760749 0 0 0 
0.136467 0.035346 0.7079 0 0 0 
0.143094 0.036326 0.712443 0 0 0 
0.043228 0.188491 0.710612 0 0 0 
0.176527 0.058535 0.709817 0 0 0 
0.045507 0.184619 0.707388 0 0 0 
0.174239 0.057776 0.709183 0 0 0 
0.086025 0.169259 0.643909 0 0 0 
0.129708 -0.00252 0.730061 0 0 0 
0.269799 0.144838 0.648402 0 0 0 
0.09144 0.167769 0.644398 0 0 0 
0.158064 0.093875 0.685432 0 0 0 
0.363463 -0.3145 0.864748 0 0 0 
0.35978 -0.310559 0.867612 0 0 0 
0.13222 0.102891 0.684455 0 0 0 
0.067661 -0.096841 0.900394 0 0 0 
0.103474 0.170753 0.644686 0 0 0 
0.12743 0.167682 0.636667 0 0 0 
0.074893 0.133037 0.759341 0 0 0 
0.33015 0.096439 0.774007 0 0 0 
0.152509 0.158549 0.639222 0 0 0 
0.141442 0.1675 0.634635 0 0 0 
0.190372 0.166801 0.643635 0 0 0 
0.152168 -0.062925 0.743788 0 0 0 
0.3314 0.144121 0.672756 0 0 0 
0.240343 0.162952 0.620314 0 0 0 
0.342953 -0.252323 0.843333 0 0 0 
0.342952 -0.245206 0.848909 0 0 0 
0.353984 -0.208 0.901484 0 0 0 
0.262336 0.161768 0.6267 0 0 0 
0.121171 0.024203 0.697731 0 0 0 
0.199045 0.15029 0.669151 0 0 0 
0.299867 0.174779 0.663371 0 0 0 
0.30032 0.166912 0.657484 0 0 0 
0.223182 0.115797 0.683849 0 0 0 
0.343989 0.177787 0.672893 0 0 0 
0.082929 0.156544 0.731301 0 0 0 
0.068372 -0.320533 0.982414 0 0 0 
0.345282 0.178431 0.674994 0 0 0 
0.111129 -0.31582 0.827642 0 0 0 
0.260286 0.120543 0.683283 0 0 0 
0.359439 0.180019 0.680122 0 0 0 
0.045849 0.185368 0.713375 0 0 0 
0.171804 0.058782 0.712556 0 0 0 
0.355565 -0.010524 0.871819 0 0 0 
0.09729 0.16706 0.645183 0 0 0 
0.130066 -0.00538 0.739213 0 0 0 
0.104548 0.167416 0.644941 0 0 0 
0.106636 -0.012481 0.785749 0 0 0 
0.175208 0.167676 0.644607 0 0 0 
0.188448 0.167837 0.647835 0 0 0 
0.297284 0.058419 0.752371 0 0 0 
0.075317 -0.279325 0.902934 0 0 0 
0.239668 0.162736 0.625282 0 0 0 
0.091187 -0.359912 0.900342 0 0 0 
0.089369 -0.115393 0.885788 0 0 0 
0.075717 0.156332 0.757253 0 0 0 
0.159994 -0.217913 0.849667 0 0 0 
0.091647 -0.146696 0.851183 0 0 0 
0.090668 -0.126326 0.873594 0 0 0 
0.320433 0.173655 0.668374 0 0 0 
0.177388 0.150323 0.672253 0 0 0 
0.164978 0.151017 0.660817 0 0 0 
0.040718 -0.131163 0.860242 0 0 0 
0.040111 -0.107669 0.884253 0 0 0 
0.040782 0.186393 0.718644 0 0 0 
0.040498 0.187132 0.712801 0 0 0 
0.171804 0.052658 0.712504 0 0 0 
0.377049 -0.181421 0.929533 0 0 0 
0.047253 0.179634 0.695695 0 0 0 
0.079848 0.167477 0.648817 0 0 0 
0.229556 -0.261897 0.808374 0 0 0 
0.312303 -0.227307 0.860161 0 0 0 
0.065687 0.165718 0.766059 0 0 0 
0.176992 0.167578 0.64804 0 0 0 
0.118665 -0.366347 0.803635 0 0 0 
0.062713 0.142636 0.785131 0 0 0 
0.199205 0.163516 0.626053 0 0 0 
0.245355 -0.142284 0.827867 0 0 0 
0.306343 0.173017 0.667032 0 0 0 
0.142174 -0.226842 0.841061 0 0 0 
0.310572 0.173028 0.670905 0 0 0 
0.27737 0.008094 0.743301 0 0 0 
0.08182 -0.260773 0.837344 0 0 0 
0.120321 -0.147989 0.888595 0 0 0 
0.15288 -0.067817 0.751244 0 0 0 
0.121895 -0.054959 0.797548 0 0 0 
0.312972 0.172641 0.673 0 0 0 
0.316816 -0.026886 0.835629 0 0 0 
0.247298 -0.116025 0.819342 0 0 0 
0.267669 0.006591 0.734941 0 0 0 
0.084965 -0.358785 0.917665 0 0 0 
0.328263 -0.130956 0.906634 0 0 0 
0.337312 0.173154 0.670939 0 0 0 
0.325523 0.040952 0.786048 0 0 0 
0.342324 0.173412 0.672536 0 0 0 
0.308153 -0.184237 0.874072 0 0 0 
0.024283 0.197571 0.760607 0 0 0 
0.050704 0.171089 0.751119 0 0 0 
0.262674 -0.048451 0.795119 0 0 0 
0.028655 0.197571 0.759878 0 0 0 
0.045671 -0.131163 0.861183 0 0 0 
0.045991 -0.107547 0.883525 0 0 0 
0.045157 0.185368 0.716454 0 0 0 
0.169331 0.059112 0.715514 0 0 0 
0.074755 0.167837 0.648627 0 0 0 
0.085806 0.167578 0.647626 0 0 0 
0.266386 0.150185 0.632732 0 0 0 
0.13957 -0.057218 0.754457 0 0 0 
0.097271 0.166238 0.649172 0 0 0 
0.135 0.167508 0.640626 0 0 0 
0.051833 -0.225789 0.803114 0 0 0 
0.149121 -0.027828 0.736 0 0 0 
0.221969 0.161883 0.631382 0 0 0 
0.216319 0.159066 0.625211 0 0 0 
0.220408 0.162229 0.626699 0 0 0 
0.300418 0.171463 0.661495 0 0 0 
0.07 0.167735 0.650667 0 0 0 
0.410013 -0.204476 0.924219 0 0 0 
0.119982 0.164036 0.632872 0 0 0 
0.149021 0.158616 0.631365 0 0 0 
0.142971 0.162229 0.631688 0 0 0 
0.249834 0.070203 0.697183 0 0 0 
0.061573 0.16244 0.710629 0 0 0 
0.147195 0.075795 0.714193 0 0 0 
0.267776 0.161371 0.631179 0 0 0 
0.143445 -0.084572 0.83697 0 0 0 
0.26838 0.163776 0.638647 0 0 0 
0.281112 0.167518 0.64799 0 0 0 
0.343853 0.172897 0.674939 0 0 0 
0.242472 0.044889 0.697878 0 0 0 
0.255405 0.106719 0.707568 0 0 0 
0.057161 0.173542 0.676365 0 0 0 
0.405567 -0.204918 0.926029 0 0 0 
0.120134 0.163258 0.637439 0 0 0 
0.074893 0.14386 0.757635 0 0 0 
0.291144 0.167518 0.653869 0 0 0 
0.170966 0.15795 0.643854 0 0 0 
0.348766 0.17341 0.677161 0 0 0 
0.360973 -0.245881 0.855726 0 0 0 
0.017265 0.199954 0.774206 0 0 0 
0.028 0.195909 0.760998 0 0 0 
0.260102 -0.026385 0.754939 0 0 0 
0.301827 -0.290546 0.817672 0 0 0 
0.259511 -0.216631 0.845444 0 0 0 
0.136859 -0.081427 0.872054 0 0 0 
0.181864 0.077087 0.693403 0 0 0 
0.188911 0.068377 0.693688 0 0 0 
0.110598 -0.185043 0.800625 0 0 0 
0.061326 0.171873 0.671092 0 0 0 
0.268568 0.144838 0.642375 0 0 0 
0.091953 0.16675 0.650466 0 0 0 
0.206187 -0.14703 0.838817 0 0 0 
0.270946 -0.061226 0.813119 0 0 0 
0.148372 0.158052 0.636333 0 0 0 
0.140445 0.161694 0.634998 0 0 0 
0.155445 0.160834 0.635839 0 0 0 
0.073637 -0.143367 0.840699 0 0 0 
0.11356 -0.095682 0.922878 0 0 0 
0.188632 0.16058 0.637188 0 0 0 
0.039367 0.141543 0.80091 0 0 0 
0.230573 0.163001 0.633877 0 0 0 
0.274107 0.166283 0.638364 0 0 0 
0.315845 0.173799 0.675193 0 0 0 
0.337754 0.099013 0.772857 0 0 0 
0.318662 0.08291 0.774409 0 0 0 
0.345928 0.173285 0.674255 0 0 0 
0.325903 -0.004541 0.838396 0 0 0 
0.084304 -0.269337 0.850198 0 0 0 
0.126347 -0.223359 0.843828 0 0 0 
0.244646 -0.070658 0.814814 0 0 0 
0.24849 -0.053041 0.789983 0 0 0 
0.353181 0.174313 0.678762 0 0 0 
0.326845 -0.027528 0.852233 0 0 0 
0.338654 -0.038704 0.874941 0 0 0 
0.063142 -0.222585 0.780668 0 0 0 
0.192905 -0.070726 0.765516 0 0 0 
0.370636 -0.006339 0.872261 0 0 0 
0.358773 -0.342845 0.845881 0 0 0 
0.038457 0.186397 0.728455 0 0 0 
0.297232 -0.256695 0.826384 0 0 0 
0.37664 -0.257112 0.861143 0 0 0 
0.367184 -0.244279 0.859575 0 0 0 
0.365453 -0.216762 0.891393 0 0 0 
0.063292 0.169171 0.660306 0 0 0 
0.330021 0.006745 0.837413 0 0 0 
0.202766 0.156609 0.616242 0 0 0 
0.34517 -0.187881 0.911333 0 0 0 
0.259304 0.109138 0.710027 0 0 0 
0.205974 0.156355 0.614575 0 0 0 
0.210444 0.156609 0.615991 0 0 0 
0.058349 -0.20958 0.776068 0 0 0 
0.313896 0.151984 0.660267 0 0 0 
0.297341 0.169171 0.659586 0 0 0 
0.358931 -0.006339 0.873207 0 0 0 
0.118517 -0.337604 0.803849 0 0 0 
0.078716 -0.257101 0.842513 0 0 0 
0.301098 0.114778 0.70821 0 0 0 
0.354383 0.086935 0.776496 0 0 0 
0.37504 -0.26675 0.858402 0 0 0 
0.016503 0.196016 0.775364 0 0 0 
0.177146 -0.236048 0.82012 0 0 0 
0.127451 -0.199102 0.860163 0 0 0 
0.074892 -0.146679 0.838315 0 0 0 
0.33189 0.139165 0.673467 0 0 0 
0.188576 0.1621 0.642242 0 0 0 
0.325734 0.030039 0.820194 0 0 0 
0.336902 0.0243 0.838314 0 0 0 
0.148485 -0.061752 0.746274 0 0 0 
0.335262 0.078403 0.785715 0 0 0 
0.337701 0.030625 0.833943 0 0 0 
0.211719 0.154758 0.619682 0 0 0 
0.179593 -0.288396 0.796333 0 0 0 
0.168146 -0.271682 0.795484 0 0 0 
0.245692 0.155851 0.620061 0 0 0 
0.041873 0.141779 0.81812 0 0 0 
0.115851 -0.305167 0.850333 0 0 0 
0.114335 -0.255997 0.804091 0 0 0 
0.347958 -0.211416 0.891253 0 0 0 
0.251231 0.15619 0.619152 0 0 0 
0.144398 -0.285923 0.80579 0 0 0 
0.372306 -0.209666 0.912312 0 0 0 
0.284628 0.158294 0.652 0 0 0 
0.084814 -0.324706 0.928628 0 0 0 
0.370517 -0.275287 0.855837 0 0 0 
0.350265 -0.256754 0.847 0 0 0 
