ply
format ascii 1.0
comment VCGLIB generated
element vertex 1366
property float x
property float y
property float z
property float nx
property float ny
property float nz
element face 0
property list uchar int vertex_indices
end_header
0.065757 -0.052765 0.748875 0 0 0 
0.162897 -0.100083 0.905109 0 0 0 
0.166783 -0.103472 0.906226 0 0 0 
0.106361 -0.005474 0.753222 0 0 0 
0.116879 -0.004743 0.750941 0 0 0 
0.123687 -0.002599 0.752959 0 0 0 
0.127466 -0.004762 0.753939 0 0 0 
0.023057 -0.280858 0.848357 0 0 0 
0.131978 -0.004768 0.754817 0 0 0 
0.141576 -0.005496 0.756454 0 0 0 
0.147959 -0.005518 0.759496 0 0 0 
0.161705 -0.004856 0.771688 0 0 0 
0.164665 -0.005641 0.776183 0 0 0 
0.173915 -0.004995 0.791776 0 0 0 
0.17883 -0.002748 0.80379 0 0 0 
0.182874 -0.004364 0.817415 0 0 0 
0.147699 -0.067745 0.803197 0 0 0 
0.183773 -0.005947 0.828115 0 0 0 
-0.098267 -0.267354 0.873928 0 0 0 
0.195821 -0.002958 0.847586 0 0 0 
0.193498 -0.006208 0.856121 0 0 0 
0.19802 -0.004626 0.86074 0 0 0 
0.110986 -0.005489 0.754201 0 0 0 
0.159286 -0.005583 0.769799 0 0 0 
0.075345 -0.087677 0.77067 0 0 0 
0.054615 -0.165296 0.871565 0 0 0 
0.174673 -0.004995 0.796075 0 0 0 
0.175432 -0.004995 0.800375 0 0 0 
0.187946 -0.004428 0.838208 0 0 0 
0.197192 -0.004626 0.853535 0 0 0 
-0.043663 -0.005947 0.821348 0 0 0 
-0.037966 -0.372869 0.866686 0 0 0 
0.194317 -0.006208 0.864699 0 0 0 
-0.042931 -0.009862 0.817497 0 0 0 
-0.035165 -0.022423 0.815652 0 0 0 
-0.046009 -0.138841 0.946576 0 0 0 
-0.036501 -0.139909 0.935877 0 0 0 
0.156267 -0.379125 0.913914 0 0 0 
0.162974 -0.25014 0.993576 0 0 0 
0.089374 -0.237898 0.91279 0 0 0 
0.11755 -0.368382 0.879333 0 0 0 
0.157847 -0.375225 0.915606 0 0 0 
-0.036023 -0.010462 0.806667 0 0 0 
-0.102773 -0.150186 0.881 0 0 0 
0.112615 -0.366278 0.880484 0 0 0 
-0.034436 -0.009681 0.802149 0 0 0 
-0.119428 -0.155246 0.867244 0 0 0 
-0.118178 -0.163944 0.852314 0 0 0 
0.182204 -0.007508 0.813349 0 0 0 
0.184671 -0.009898 0.830213 0 0 0 
-0.029441 -0.009561 0.792527 0 0 0 
-0.03269 -0.009621 0.798888 0 0 0 
-0.11626 -0.158464 0.862193 0 0 0 
0.163156 -0.030021 0.793606 0 0 0 
-0.026986 -0.009501 0.788807 0 0 0 
-0.024654 -0.010228 0.786396 0 0 0 
-0.021553 -0.009441 0.784484 0 0 0 
0.090142 -0.369038 0.859667 0 0 0 
-0.013983 -0.01015 0.780686 0 0 0 
0.085195 -0.367396 0.859151 0 0 0 
-0.011706 -0.00938 0.778747 0 0 0 
-0.007952 -0.010098 0.777151 0 0 0 
0.006894 -0.01002 0.769817 0 0 0 
-0.002719 -0.018138 0.773245 0 0 0 
0.014585 -0.265313 0.863817 0 0 0 
0.008603 -0.270058 0.866907 0 0 0 
0.021509 -0.009212 0.764181 0 0 0 
0.022856 -0.00989 0.761941 0 0 0 
0.033311 -0.009747 0.75113 0 0 0 
0.038457 -0.010114 0.725365 0 0 0 
0.011447 -0.04135 0.779405 0 0 0 
0.089963 -0.254343 0.917361 0 0 0 
0.1208 -0.009786 0.752747 0 0 0 
0.140286 -0.22924 0.94665 0 0 0 
0.127128 -0.009773 0.752941 0 0 0 
0.142403 -0.11814 0.890237 0 0 0 
0.127247 -0.11394 0.857851 0 0 0 
0.153196 -0.009968 0.765817 0 0 0 
0.155807 -0.00926 0.768151 0 0 0 
-0.02767 -0.030589 0.80791 0 0 0 
-0.065219 -0.254328 0.79654 0 0 0 
0.161272 -0.00932 0.773274 0 0 0 
-0.003047 -0.105355 0.865154 0 0 0 
-0.091221 -0.185023 0.837333 0 0 0 
-0.010195 -0.425687 0.838312 0 0 0 
0.165302 -0.010124 0.779679 0 0 0 
0.058574 -0.115102 0.779342 0 0 0 
-0.017164 -0.071436 0.827559 0 0 0 
0.167866 -0.009441 0.782183 0 0 0 
0.066715 -0.11198 0.778939 0 0 0 
0.052701 -0.077334 0.759749 0 0 0 
0.054149 -0.197438 0.877667 0 0 0 
0.168618 -0.010189 0.786048 0 0 0 
0.172074 -0.010306 0.792568 0 0 0 
-0.060949 -0.254662 0.785993 0 0 0 
0.172834 -0.010306 0.797023 0 0 0 
0.179192 -0.010592 0.808827 0 0 0 
0.179973 -0.010592 0.812038 0 0 0 
-0.048836 -0.134606 0.94725 0 0 0 
-0.01096 -0.010124 0.778869 0 0 0 
0.08459 -0.011926 0.751737 0 0 0 
-0.03381 -0.337288 0.863872 0 0 0 
0.108527 -0.009786 0.752667 0 0 0 
-0.136149 -0.203789 0.86004 0 0 0 
-0.133071 -0.206879 0.85441 0 0 0 
-0.076493 -0.321013 0.916772 0 0 0 
0.111119 -0.00976 0.751516 0 0 0 
-0.002159 -0.228719 0.853083 0 0 0 
0.143404 -0.009851 0.758505 0 0 0 
0.05373 -0.072406 0.75481 0 0 0 
0.065463 -0.212889 0.882939 0 0 0 
0.150399 -0.009929 0.763183 0 0 0 
0.127736 -0.103593 0.827393 0 0 0 
-0.015916 -0.127793 0.888556 0 0 0 
-0.035339 -0.014339 0.807034 0 0 0 
0.105855 -0.364202 0.87495 0 0 0 
-0.028715 -0.014884 0.796642 0 0 0 
0.09481 -0.011942 0.752808 0 0 0 
-0.107452 -0.254054 0.866375 0 0 0 
0.11719 -0.011942 0.753011 0 0 0 
-0.164994 -0.19035 0.885478 0 0 0 
0.15507 -0.012196 0.768787 0 0 0 
-0.004586 -0.095434 0.844751 0 0 0 
0.036649 -0.102381 0.790029 0 0 0 
0.169263 -0.012481 0.791699 0 0 0 
0.166024 -0.164624 0.947326 0 0 0 
0.176197 -0.014428 0.803686 0 0 0 
0.132193 -0.140255 0.884817 0 0 0 
-0.055114 -0.267711 0.787835 0 0 0 
0.176848 -0.015259 0.807858 0 0 0 
-0.01758 -0.389675 0.845702 0 0 0 
0.17841 -0.015259 0.813881 0 0 0 
0.180071 -0.014552 0.817842 0 0 0 
0.036721 -0.286793 0.846394 0 0 0 
0.131389 -0.150532 0.885361 0 0 0 
-0.160141 -0.191972 0.885386 0 0 0 
0.181642 -0.014552 0.825264 0 0 0 
0.19 -0.015156 0.843992 0 0 0 
0.190818 -0.014342 0.853304 0 0 0 
-0.102882 -0.385263 0.942283 0 0 0 
0.191636 -0.014342 0.862616 0 0 0 
-0.140446 -0.152572 0.894726 0 0 0 
-0.025505 -0.014791 0.79077 0 0 0 
0.123844 -0.361848 0.894493 0 0 0 
-0.095719 -0.147282 0.893565 0 0 0 
-0.023839 -0.013948 0.78664 0 0 0 
-0.020828 -0.015446 0.785314 0 0 0 
-0.013983 -0.015368 0.780808 0 0 0 
-0.007952 -0.015289 0.777393 0 0 0 
-0.002719 -0.013717 0.772435 0 0 0 
0.001722 -0.015191 0.771878 0 0 0 
0.00834 -0.016578 0.768435 0 0 0 
0.012741 -0.015092 0.767314 0 0 0 
0.017131 -0.015072 0.765626 0 0 0 
0.003397 -0.42023 0.819667 0 0 0 
0.002487 -0.228255 0.78002 0 0 0 
0.022213 -0.016491 0.763464 0 0 0 
0.11101 -0.378815 0.875514 0 0 0 
-0.110143 -0.404882 0.951336 0 0 0 
0.027963 -0.014974 0.760939 0 0 0 
-0.11285 -0.155666 0.873373 0 0 0 
0.006266 -0.061897 0.78581 0 0 0 
0.110171 -0.384661 0.875496 0 0 0 
-0.110028 -0.399919 0.951124 0 0 0 
0.031611 -0.016427 0.759415 0 0 0 
-0.11704 -0.155666 0.873059 0 0 0 
-0.093376 -0.303773 0.925277 0 0 0 
0.151592 -0.373625 0.907677 0 0 0 
0.011549 -0.061976 0.785109 0 0 0 
0.032298 -0.014954 0.756301 0 0 0 
0.033311 -0.015473 0.751039 0 0 0 
0.03475 -0.016189 0.743916 0 0 0 
0.051664 -0.01565 0.725932 0 0 0 
0.072045 -0.013308 0.747888 0 0 0 
0.075635 -0.016168 0.747931 0 0 0 
0.05342 -0.015061 0.729 0 0 0 
0.079944 -0.013308 0.749792 0 0 0 
0.084478 -0.015494 0.750973 0 0 0 
0.145946 -0.134378 0.898227 0 0 0 
0.089637 -0.014797 0.752183 0 0 0 
0.095659 -0.014836 0.754011 0 0 0 
0.048799 -0.061775 0.756941 0 0 0 
0.100719 -0.014836 0.754667 0 0 0 
0.105919 -0.013415 0.754756 0 0 0 
-0.149734 -0.202697 0.871707 0 0 0 
0.110839 -0.016276 0.754737 0 0 0 
-0.153128 -0.202162 0.877428 0 0 0 
-0.09962 -0.321995 0.955623 0 0 0 
0.111119 -0.013344 0.751457 0 0 0 
0.116468 -0.016254 0.754063 0 0 0 
0.132153 -0.014876 0.754685 0 0 0 
0.140682 -0.013486 0.757635 0 0 0 
0.143054 -0.014954 0.759575 0 0 0 
0.149471 -0.01647 0.764294 0 0 0 
0.154332 -0.016599 0.769314 0 0 0 
0.157486 -0.015151 0.771294 0 0 0 
0.161897 -0.015289 0.776123 0 0 0 
0.163387 -0.015289 0.779862 0 0 0 
0.168508 -0.013983 0.787428 0 0 0 
0.022514 -0.128662 0.838491 0 0 0 
0.170338 -0.014828 0.795988 0 0 0 
0.034665 -0.015822 0.738385 0 0 0 
0.048816 -0.014937 0.724123 0 0 0 
0.035367 -0.015123 0.734916 0 0 0 
0.043323 -0.01565 0.72412 0 0 0 
-0.098841 -0.36479 0.940909 0 0 0 
-0.101653 -0.368771 0.942607 0 0 0 
-0.110143 -0.363996 0.951995 0 0 0 
0.037118 -0.015671 0.728673 0 0 0 
0.094775 -0.216023 0.896413 0 0 0 
0.038404 -0.014937 0.724639 0 0 0 
0.056919 -0.012971 0.73203 0 0 0 
0.074717 -0.015412 0.746878 0 0 0 
0.05833 -0.015246 0.736361 0 0 0 
-0.025821 -0.212521 0.872235 0 0 0 
0.059827 -0.015973 0.739402 0 0 0 
0.063546 -0.015308 0.741686 0 0 0 
0.065144 -0.01606 0.743059 0 0 0 
-0.036381 -0.015221 0.812398 0 0 0 
0.000273 -0.156321 0.873224 0 0 0 
0.131714 -0.363963 0.896905 0 0 0 
-0.051294 -0.135699 0.942756 0 0 0 
-0.00949 -0.016858 0.780382 0 0 0 
0.0559 -0.015865 0.733333 0 0 0 
0.078298 -0.015412 0.747377 0 0 0 
0.092644 -0.014817 0.753 0 0 0 
0.151424 -0.24164 0.962925 0 0 0 
-0.096655 -0.329251 0.954122 0 0 0 
0.107805 -0.014817 0.752808 0 0 0 
0.159457 -0.01675 0.775091 0 0 0 
-0.037709 -0.019383 0.81237 0 0 0 
-0.04009 -0.142589 0.935434 0 0 0 
-0.031353 -0.017355 0.806033 0 0 0 
-0.097991 -0.151842 0.876686 0 0 0 
0.000998 -0.051408 0.786032 0 0 0 
-0.026362 -0.017117 0.795107 0 0 0 
0.172394 -0.017225 0.806147 0 0 0 
0.184081 -0.0195 0.831701 0 0 0 
-0.0742 -0.415763 0.913443 0 0 0 
-0.035122 -0.020048 0.808063 0 0 0 
-0.024967 -0.021768 0.796002 0 0 0 
-0.097703 -0.160853 0.865939 0 0 0 
-0.091626 -0.30203 0.915915 0 0 0 
-0.02839 -0.421072 0.855548 0 0 0 
-0.024021 -0.020094 0.792047 0 0 0 
-0.095709 -0.16359 0.862667 0 0 0 
-0.051022 -0.143046 0.93802 0 0 0 
0.094813 -0.365405 0.865695 0 0 0 
-0.022476 -0.018561 0.788738 0 0 0 
0.177716 -0.019242 0.813543 0 0 0 
0.178501 -0.019242 0.816617 0 0 0 
-0.019323 -0.020691 0.786032 0 0 0 
-0.017795 -0.01842 0.783193 0 0 0 
-0.009478 -0.020559 0.780505 0 0 0 
-0.006497 -0.233115 0.87935 0 0 0 
-0.006487 -0.020559 0.778039 0 0 0 
0.001068 -0.104715 0.847753 0 0 0 
0.0019 -0.10865 0.853577 0 0 0 
-0.004221 -0.020454 0.775921 0 0 0 
-0.117322 -0.295541 0.939447 0 0 0 
0.00834 -0.018044 0.768435 0 0 0 
0.074353 -0.091198 0.772763 0 0 0 
0.017888 -0.020216 0.766959 0 0 0 
0.023647 -0.017926 0.763 0 0 0 
0.048226 -0.090845 0.770566 0 0 0 
-0.097732 -0.405195 0.937808 0 0 0 
0.029538 -0.020866 0.7622 0 0 0 
0.005689 -0.093245 0.812639 0 0 0 
-0.097732 -0.399823 0.937869 0 0 0 
0.031694 -0.020111 0.761232 0 0 0 
0.069459 -0.177731 0.880333 0 0 0 
0.090346 -0.197438 0.878688 0 0 0 
0.134683 -0.017809 0.758 0 0 0 
-0.125162 -0.265141 0.926507 0 0 0 
0.137224 -0.020032 0.760192 0 0 0 
0.141969 -0.020085 0.762253 0 0 0 
0.153795 -0.02103 0.770672 0 0 0 
0.004417 -0.115262 0.863709 0 0 0 
0.116578 -0.254697 0.912758 0 0 0 
0.15682 -0.020401 0.772425 0 0 0 
0.160945 -0.018232 0.777901 0 0 0 
-0.010619 -0.223119 0.808726 0 0 0 
0.001091 -0.276466 0.849141 0 0 0 
0.116389 -0.355713 0.884627 0 0 0 
0.000253 -0.315497 0.810011 0 0 0 
-0.044989 -0.149019 0.925556 0 0 0 
-0.08702 -0.150697 0.885193 0 0 0 
0.166245 -0.01849 0.785672 0 0 0 
-0.01556 -0.02144 0.784778 0 0 0 
0.027412 -0.020921 0.76521 0 0 0 
0.032592 -0.020484 0.7511 0 0 0 
0.058557 -0.176251 0.880767 0 0 0 
0.090013 -0.205304 0.882667 0 0 0 
0.034031 -0.020484 0.746056 0 0 0 
0.052359 -0.020493 0.725833 0 0 0 
0.054272 -0.176051 0.879575 0 0 0 
0.034807 -0.020102 0.739928 0 0 0 
0.048816 -0.020465 0.723333 0 0 0 
0.050724 -0.176288 0.87795 0 0 0 
0.031638 -0.145133 0.863229 0 0 0 
0.106461 -0.421654 0.878817 0 0 0 
0.054444 -0.020493 0.729335 0 0 0 
0.075217 -0.020539 0.750033 0 0 0 
-0.155349 -0.161367 0.881438 0 0 0 
0.109125 -0.20691 0.902872 0 0 0 
0.060537 -0.019505 0.739484 0 0 0 
0.072471 -0.019663 0.746548 0 0 0 
0.080264 -0.020539 0.750667 0 0 0 
0.085084 -0.020484 0.750123 0 0 0 
0.100719 -0.020593 0.753301 0 0 0 
0.116054 -0.0199 0.754726 0 0 0 
-0.017581 -0.181684 0.887244 0 0 0 
-0.113871 -0.245177 0.875308 0 0 0 
0.085781 -0.283679 0.883749 0 0 0 
0.121522 -0.020566 0.753799 0 0 0 
0.133405 -0.02073 0.759131 0 0 0 
-0.055872 -0.266201 0.790435 0 0 0 
0.164108 -0.020664 0.785575 0 0 0 
-0.008167 -0.22286 0.796877 0 0 0 
0.16882 -0.020119 0.801677 0 0 0 
0.179452 -0.020219 0.82186 0 0 0 
0.181037 -0.020219 0.826161 0 0 0 
-0.031548 -0.022095 0.811183 0 0 0 
0.082277 -0.041283 0.763301 0 0 0 
0.168499 -0.045091 0.817 0 0 0 
0.096126 -0.020539 0.752607 0 0 0 
0.110545 -0.020539 0.752719 0 0 0 
0.054046 -0.054698 0.729365 0 0 0 
0.03671 -0.056686 0.744136 0 0 0 
0.142887 -0.020839 0.7639 0 0 0 
-0.008586 -0.091778 0.844341 0 0 0 
0.142656 -0.156002 0.90071 0 0 0 
-0.035682 -0.160348 0.915059 0 0 0 
0.091898 -0.367824 0.862174 0 0 0 
0.160485 -0.021331 0.779941 0 0 0 
0.169885 -0.021768 0.805783 0 0 0 
-0.032723 -0.025495 0.817689 0 0 0 
-0.034706 -0.139909 0.933024 0 0 0 
0.00649 -0.317057 0.812939 0 0 0 
-0.033345 -0.023815 0.813601 0 0 0 
-0.036267 -0.144337 0.929968 0 0 0 
-0.113366 -0.2645 0.890517 0 0 0 
-0.064562 -0.216508 0.784817 0 0 0 
-0.055485 -0.218656 0.775242 0 0 0 
-0.052981 -0.219735 0.772758 0 0 0 
0.177651 -0.024136 0.818605 0 0 0 
-0.027533 -0.025828 0.803158 0 0 0 
-0.060423 -0.259407 0.795124 0 0 0 
-0.024998 -0.025603 0.797211 0 0 0 
-0.028375 -0.215361 0.807183 0 0 0 
-0.064572 -0.158515 0.889738 0 0 0 
-0.019973 -0.228548 0.780566 0 0 0 
0.076145 -0.394415 0.851781 0 0 0 
-0.022561 -0.025443 0.793087 0 0 0 
-0.022818 -0.064653 0.833548 0 0 0 
0.150801 -0.107188 0.884581 0 0 0 
-0.03684 -0.217402 0.805009 0 0 0 
-0.017908 -0.025314 0.788011 0 0 0 
-0.112518 -0.159016 0.864434 0 0 0 
0.162266 -0.025218 0.788215 0 0 0 
0.167172 -0.025507 0.801361 0 0 0 
0.169885 -0.023289 0.805783 0 0 0 
-0.037679 -0.025408 0.823977 0 0 0 
-0.009429 -0.259672 0.78096 0 0 0 
-0.036064 -0.025408 0.823653 0 0 0 
-0.0337 -0.135008 0.932931 0 0 0 
0.146993 -0.285495 0.932686 0 0 0 
0.163242 -0.286435 0.937393 0 0 0 
0.005731 -0.323678 0.816575 0 0 0 
-0.031782 -0.026926 0.818091 0 0 0 
0.203048 -0.285555 0.980839 0 0 0 
-0.066279 -0.155118 0.890738 0 0 0 
-0.025893 -0.026497 0.802275 0 0 0 
-0.014072 -0.025968 0.786253 0 0 0 
-0.012501 -0.02509 0.783 0 0 0 
-0.11532 -0.22981 0.855928 0 0 0 
-0.008753 -0.025836 0.78195 0 0 0 
-0.061271 -0.240224 0.775247 0 0 0 
0.112999 -0.358245 0.883425 0 0 0 
0.000984 -0.024833 0.775699 0 0 0 
-0.001995 -0.029417 0.777626 0 0 0 
0.084089 -0.217613 0.892557 0 0 0 
0.004694 -0.024833 0.773677 0 0 0 
0.012115 -0.03222 0.774 0 0 0 
0.104642 -0.192255 0.887123 0 0 0 
0.085223 -0.211075 0.886457 0 0 0 
0.016482 -0.02544 0.769635 0 0 0 
0.023006 -0.025307 0.766484 0 0 0 
-0.088644 -0.341269 0.936364 0 0 0 
0.0559 -0.022179 0.732785 0 0 0 
0.10634 -0.426202 0.879061 0 0 0 
0.071041 -0.022511 0.748078 0 0 0 
-0.159241 -0.161848 0.879914 0 0 0 
0.013704 -0.331972 0.824626 0 0 0 
0.078927 -0.022722 0.752877 0 0 0 
0.132298 -0.025869 0.760484 0 0 0 
-0.112609 -0.148656 0.891466 0 0 0 
-0.005324 -0.40149 0.832374 0 0 0 
0.085174 -0.124612 0.800932 0 0 0 
0.135946 -0.024416 0.761839 0 0 0 
-0.091971 -0.166111 0.859253 0 0 0 
0.138127 -0.027465 0.765688 0 0 0 
0.016779 -0.280719 0.860626 0 0 0 
0.146768 -0.024641 0.767484 0 0 0 
0.006187 -0.032262 0.775122 0 0 0 
0.148434 -0.025407 0.769183 0 0 0 
0.153255 -0.025473 0.775082 0 0 0 
0.150727 -0.180249 0.932243 0 0 0 
0.158987 -0.025058 0.781749 0 0 0 
0.165648 -0.025507 0.794914 0 0 0 
0.172793 -0.025464 0.807389 0 0 0 
0.174362 -0.025464 0.811967 0 0 0 
0.097336 -0.319866 0.857151 0 0 0 
-0.065617 -0.180048 0.857785 0 0 0 
0.033178 -0.025393 0.751261 0 0 0 
0.033713 -0.026675 0.744427 0 0 0 
0.051593 -0.025993 0.725812 0 0 0 
0.08459 -0.025563 0.752253 0 0 0 
0.090598 -0.02707 0.754374 0 0 0 
0.100074 -0.228836 0.915443 0 0 0 
-0.132038 -0.387347 0.98505 0 0 0 
0.105779 -0.025631 0.754 0 0 0 
0.111562 -0.025631 0.754183 0 0 0 
0.116623 -0.025631 0.75488 0 0 0 
0.130151 -0.024288 0.756808 0 0 0 
0.099038 -0.308794 0.870301 0 0 0 
0.036169 -0.025686 0.734653 0 0 0 
0.043203 -0.025267 0.72381 0 0 0 
0.035367 -0.026316 0.734669 0 0 0 
0.058719 -0.025686 0.735253 0 0 0 
-0.041529 -0.188599 0.869489 0 0 0 
0.031653 -0.025903 0.760547 0 0 0 
0.028693 -0.031679 0.761504 0 0 0 
0.039206 -0.026065 0.725738 0 0 0 
0.084815 -0.02707 0.754181 0 0 0 
0.012788 -0.316277 0.816242 0 0 0 
-0.03421 -0.030891 0.817369 0 0 0 
-0.032735 -0.14005 0.927639 0 0 0 
-0.031191 -0.031787 0.817674 0 0 0 
-0.031877 -0.139311 0.92568 0 0 0 
0.174002 -0.028657 0.812012 0 0 0 
-0.024324 -0.031051 0.802711 0 0 0 
-0.02276 -0.030248 0.798274 0 0 0 
-0.022287 -0.070242 0.839873 0 0 0 
0.12923 -0.110307 0.85692 0 0 0 
-0.02112 -0.030857 0.796456 0 0 0 
-0.019202 -0.073974 0.838556 0 0 0 
0.048166 -0.113759 0.781 0 0 0 
-0.050242 -0.210205 0.822059 0 0 0 
0.20919 -0.31108 0.968847 0 0 0 
0.053253 -0.322524 0.824151 0 0 0 
-0.018712 -0.029908 0.791844 0 0 0 
-0.055766 -0.210205 0.821936 0 0 0 
-0.013353 -0.029795 0.787009 0 0 0 
-0.010278 -0.030392 0.785333 0 0 0 
-0.010265 -0.028111 0.784091 0 0 0 
0.164308 -0.337515 0.910061 0 0 0 
0.126689 -0.027213 0.759193 0 0 0 
-0.128443 -0.270096 0.93516 0 0 0 
0.02653 -0.280723 0.856131 0 0 0 
0.154647 -0.027931 0.778909 0 0 0 
0.154935 -0.175722 0.933128 0 0 0 
0.163917 -0.030021 0.797246 0 0 0 
0.165163 -0.072561 0.839006 0 0 0 
0.164949 -0.030973 0.801591 0 0 0 
0.160809 -0.154155 0.928686 0 0 0 
0.168982 -0.030664 0.806319 0 0 0 
0.170537 -0.030664 0.811919 0 0 0 
0.011331 -0.300477 0.824939 0 0 0 
-0.043878 -0.221555 0.779758 0 0 0 
0.013117 -0.283618 0.837333 0 0 0 
-0.007993 -0.02953 0.781941 0 0 0 
-0.004249 -0.031021 0.780253 0 0 0 
0.098368 -0.200021 0.88274 0 0 0 
0.100068 -0.244026 0.921122 0 0 0 
0.023036 -0.030465 0.767 0 0 0 
0.027448 -0.030465 0.766119 0 0 0 
0.138127 -0.030385 0.765314 0 0 0 
-0.028499 -0.226371 0.787694 0 0 0 
0.150299 -0.029152 0.772812 0 0 0 
0.153352 -0.030941 0.776758 0 0 0 
0.154845 -0.030941 0.780597 0 0 0 
0.154046 -0.175722 0.928886 0 0 0 
-0.019667 -0.218564 0.797824 0 0 0 
0.032853 -0.030749 0.750505 0 0 0 
0.137813 -0.139985 0.890756 0 0 0 
0.072526 -0.031388 0.752635 0 0 0 
0.054444 -0.029488 0.728536 0 0 0 
0.038372 -0.256711 0.883414 0 0 0 
0.089995 -0.030709 0.755425 0 0 0 
-0.033881 -0.13036 0.937748 0 0 0 
-0.04424 -0.13175 0.9455 0 0 0 
-0.005624 -0.165784 0.878504 0 0 0 
0.111133 -0.030749 0.756152 0 0 0 
0.116207 -0.030749 0.756881 0 0 0 
0.131568 -0.030953 0.761072 0 0 0 
-0.118196 -0.150701 0.888939 0 0 0 
-0.03906 -0.032446 0.824022 0 0 0 
-0.038257 -0.032446 0.825965 0 0 0 
-0.108288 -0.254054 0.870643 0 0 0 
0.022417 -0.032095 0.770545 0 0 0 
0.034523 -0.031085 0.734634 0 0 0 
0.043203 -0.030787 0.722808 0 0 0 
0.043228 -0.067179 0.760374 0 0 0 
0.070406 -0.223572 0.889726 0 0 0 
-0.105002 -0.326187 0.973096 0 0 0 
0.142896 -0.307836 0.90619 0 0 0 
0.036021 -0.029773 0.733286 0 0 0 
0.058798 -0.030638 0.735382 0 0 0 
0.130417 -0.384051 0.892989 0 0 0 
-0.118926 -0.394345 0.962122 0 0 0 
0.117241 -0.031554 0.758688 0 0 0 
-0.015899 -0.192059 0.888122 0 0 0 
-0.025406 -0.202516 0.893029 0 0 0 
0.175854 -0.031981 0.821238 0 0 0 
0.039847 -0.030872 0.725123 0 0 0 
0.157699 -0.066759 0.818858 0 0 0 
0.038178 -0.067267 0.761425 0 0 0 
0.068696 -0.227829 0.890746 0 0 0 
-0.030293 -0.036349 0.818172 0 0 0 
-0.030584 -0.140151 0.922205 0 0 0 
0.174272 -0.033556 0.818015 0 0 0 
-0.03186 -0.036349 0.821978 0 0 0 
-0.030584 -0.135761 0.922721 0 0 0 
0.021753 -0.109027 0.801453 0 0 0 
-0.027944 -0.036349 0.812695 0 0 0 
-0.031706 -0.143872 0.921409 0 0 0 
0.14816 -0.269503 0.953102 0 0 0 
0.159103 -0.032845 0.792761 0 0 0 
0.158347 -0.164037 0.927828 0 0 0 
0.16706 -0.035395 0.808003 0 0 0 
-0.020408 -0.036266 0.797057 0 0 0 
-0.018022 -0.036084 0.793263 0 0 0 
-0.014883 -0.037363 0.790881 0 0 0 
-0.012613 -0.035857 0.788119 0 0 0 
0.021588 -0.121595 0.817979 0 0 0 
-0.009539 -0.035675 0.786011 0 0 0 
-0.044836 -0.171552 0.904756 0 0 0 
0.15759 -0.034351 0.787091 0 0 0 
-0.044935 -0.165871 0.907314 0 0 0 
0.158389 -0.036038 0.791022 0 0 0 
0.138471 -0.03651 0.770516 0 0 0 
0.157464 -0.164037 0.922213 0 0 0 
0.16148 -0.034699 0.796095 0 0 0 
0.162855 -0.035593 0.802532 0 0 0 
-0.007262 -0.034089 0.783435 0 0 0 
0.007692 -0.036053 0.777516 0 0 0 
0.012146 -0.036006 0.776425 0 0 0 
0.14646 -0.191909 0.921709 0 0 0 
-0.018587 -0.086185 0.85878 0 0 0 
0.018028 -0.033654 0.772636 0 0 0 
0.026608 -0.03545 0.764656 0 0 0 
0.01713 -0.243803 0.879061 0 0 0 
0.023003 -0.246878 0.878921 0 0 0 
0.147533 -0.03361 0.772365 0 0 0 
0.148957 -0.185535 0.919953 0 0 0 
0.148106 -0.03596 0.775639 0 0 0 
0.14639 -0.181901 0.920629 0 0 0 
-0.026861 -0.035949 0.810909 0 0 0 
-0.135991 -0.254246 0.92011 0 0 0 
-0.038029 -0.205357 0.831635 0 0 0 
-0.08201 -0.41369 0.921817 0 0 0 
0.017332 -0.03596 0.775253 0 0 0 
0.021074 -0.036747 0.77557 0 0 0 
0.064543 -0.179818 0.881726 0 0 0 
0.084742 -0.202317 0.880575 0 0 0 
0.029229 -0.0358 0.756761 0 0 0 
0.022211 -0.239042 0.880061 0 0 0 
0.027336 -0.243794 0.881565 0 0 0 
0.032505 -0.036135 0.743982 0 0 0 
0.052981 -0.036358 0.724338 0 0 0 
0.078101 -0.035218 0.757937 0 0 0 
0.090959 -0.035125 0.757314 0 0 0 
0.095187 -0.035078 0.756061 0 0 0 
0.10606 -0.035078 0.755878 0 0 0 
0.022465 -0.07749 0.796397 0 0 0 
0.110986 -0.035032 0.756658 0 0 0 
0.127023 -0.035989 0.760536 0 0 0 
0.137738 -0.209289 0.921968 0 0 0 
0.131395 -0.035264 0.761376 0 0 0 
0.132993 -0.036226 0.764365 0 0 0 
0.159909 -0.036038 0.796198 0 0 0 
0.157464 -0.162279 0.922213 0 0 0 
0.163622 -0.035593 0.80584 0 0 0 
0.161528 -0.147893 0.923183 0 0 0 
0.032734 -0.035604 0.740744 0 0 0 
0.048816 -0.035667 0.723726 0 0 0 
0.123902 -0.178186 0.904383 0 0 0 
0.061081 -0.035652 0.737686 0 0 0 
0.065232 -0.034568 0.743726 0 0 0 
0.021319 -0.212521 0.877817 0 0 0 
0.053489 -0.242676 0.881274 0 0 0 
0.038404 -0.036358 0.724726 0 0 0 
0.034381 -0.036508 0.730886 0 0 0 
0.173108 -0.04153 0.822641 0 0 0 
0.176973 -0.041086 0.829297 0 0 0 
-0.03822 -0.041128 0.827695 0 0 0 
-0.033999 -0.040938 0.828668 0 0 0 
-0.013822 -0.254649 0.771626 0 0 0 
-0.03059 -0.04143 0.822673 0 0 0 
-0.02882 -0.134883 0.915821 0 0 0 
-0.028621 -0.040877 0.817632 0 0 0 
-0.029573 -0.140416 0.915891 0 0 0 
-0.015013 -0.155266 0.884828 0 0 0 
-0.005768 -0.037126 0.784242 0 0 0 
0.001951 -0.129956 0.875061 0 0 0 
0.043107 -0.171907 0.876039 0 0 0 
0.080887 -0.234345 0.904747 0 0 0 
0.006226 -0.036936 0.779817 0 0 0 
0.070282 -0.089259 0.76893 0 0 0 
0.012004 -0.133144 0.873695 0 0 0 
0.028632 -0.14582 0.870054 0 0 0 
-0.095462 -0.243472 0.827588 0 0 0 
0.094713 -0.035895 0.758091 0 0 0 
0.168266 -0.305777 0.927738 0 0 0 
0.106621 -0.038165 0.759312 0 0 0 
0.111428 -0.035895 0.758566 0 0 0 
0.149809 -0.036936 0.780932 0 0 0 
0.121219 -0.140838 0.870607 0 0 0 
0.147504 -0.176747 0.920367 0 0 0 
-0.125824 -0.228284 0.868169 0 0 0 
0.167882 -0.040248 0.811391 0 0 0 
0.168872 -0.041078 0.817304 0 0 0 
0.082277 -0.0442 0.763393 0 0 0 
0.176173 -0.041086 0.828021 0 0 0 
-0.020536 -0.042624 0.80182 0 0 0 
-0.018854 -0.040784 0.796991 0 0 0 
0.181827 -0.356576 0.943997 0 0 0 
0.16229 -0.03946 0.801491 0 0 0 
0.164114 -0.041449 0.806471 0 0 0 
0.161346 -0.150298 0.915366 0 0 0 
-0.090044 -0.195114 0.820568 0 0 0 
0.06567 -0.331613 0.831758 0 0 0 
-0.017239 -0.041336 0.794138 0 0 0 
-0.067066 -0.201557 0.835593 0 0 0 
0.201157 -0.33075 0.966328 0 0 0 
0.143458 -0.046495 0.780688 0 0 0 
0.143369 -0.175973 0.910801 0 0 0 
-0.014162 -0.041987 0.791219 0 0 0 
-0.012565 -0.040971 0.786941 0 0 0 
-0.005768 -0.041615 0.784575 0 0 0 
0.095238 -0.270097 0.916737 0 0 0 
0.153051 -0.041128 0.787 0 0 0 
0.156305 -0.041388 0.792214 0 0 0 
0.13643 -0.040978 0.771758 0 0 0 
0.157827 -0.041388 0.796177 0 0 0 
0.13919 -0.041138 0.774 0 0 0 
0.156951 -0.160874 0.918968 0 0 0 
-0.037902 -0.042534 0.833464 0 0 0 
-0.034204 -0.041982 0.833625 0 0 0 
0.144157 -0.299199 0.91412 0 0 0 
-0.032172 -0.04143 0.828667 0 0 0 
-0.028914 -0.130918 0.918063 0 0 0 
-0.006528 -0.040919 0.783726 0 0 0 
-0.070884 -0.177162 0.854274 0 0 0 
0.092398 -0.273001 0.91407 0 0 0 
0.006983 -0.041456 0.780554 0 0 0 
0.089963 -0.259594 0.917807 0 0 0 
0.012178 -0.040554 0.778 0 0 0 
0.146143 -0.190613 0.91814 0 0 0 
0.08704 -0.254383 0.914828 0 0 0 
-0.079097 -0.414102 0.918434 0 0 0 
0.017399 -0.040554 0.777939 0 0 0 
0.08704 -0.24915 0.914878 0 0 0 
0.021102 -0.041244 0.776538 0 0 0 
0.023066 -0.041499 0.770269 0 0 0 
0.024539 -0.041499 0.765469 0 0 0 
0.029875 -0.037864 0.751986 0 0 0 
0.043653 -0.036106 0.720507 0 0 0 
-0.002246 -0.236283 0.874954 0 0 0 
0.027181 -0.270033 0.877131 0 0 0 
0.081967 -0.088529 0.780511 0 0 0 
0.046604 -0.036257 0.721575 0 0 0 
0.129157 -0.038366 0.763495 0 0 0 
0.14663 -0.040606 0.778032 0 0 0 
0.145192 -0.182379 0.916533 0 0 0 
0.147383 -0.041562 0.782365 0 0 0 
0.147182 -0.17549 0.917133 0 0 0 
0.148019 -0.228999 0.966499 0 0 0 
0.153827 -0.042093 0.791151 0 0 0 
0.152261 -0.164864 0.915658 0 0 0 
0.160353 -0.040886 0.800998 0 0 0 
0.157122 -0.156664 0.918759 0 0 0 
0.027853 -0.040959 0.755508 0 0 0 
-0.013652 -0.353422 0.854909 0 0 0 
0.126992 -0.354221 0.889602 0 0 0 
0.075091 -0.040959 0.755286 0 0 0 
0.076645 -0.039564 0.759088 0 0 0 
0.07914 -0.041175 0.761543 0 0 0 
0.123709 -0.239292 0.91477 0 0 0 
0.084873 -0.039668 0.761 0 0 0 
-0.018476 -0.315116 0.81283 0 0 0 
-0.051203 -0.284856 0.811056 0 0 0 
0.096166 -0.039512 0.757636 0 0 0 
0.128128 -0.378937 0.889262 0 0 0 
-0.01659 -0.331209 0.835548 0 0 0 
0.10112 -0.03946 0.756849 0 0 0 
-0.066265 -0.282941 0.832813 0 0 0 
0.106032 -0.041121 0.760059 0 0 0 
0.157831 -0.389546 0.917747 0 0 0 
0.121194 -0.041067 0.760699 0 0 0 
0.125896 -0.03972 0.761849 0 0 0 
0.136559 -0.207959 0.91757 0 0 0 
0.173412 -0.316052 0.926556 0 0 0 
0.132087 -0.039825 0.765638 0 0 0 
0.134811 -0.039981 0.768091 0 0 0 
0.138741 -0.192449 0.914984 0 0 0 
-0.037902 -0.044151 0.833464 0 0 0 
0.142653 -0.305716 0.910151 0 0 0 
-0.032328 -0.045586 0.832727 0 0 0 
0.14281 -0.301699 0.911667 0 0 0 
0.031406 -0.040637 0.739615 0 0 0 
0.049442 -0.039757 0.722434 0 0 0 
0.064881 -0.041455 0.739817 0 0 0 
0.066392 -0.038678 0.742928 0 0 0 
-0.037709 -0.045366 0.83039 0 0 0 
-0.033922 -0.047496 0.84414 0 0 0 
0.017421 -0.04135 0.779131 0 0 0 
0.089963 -0.249092 0.917068 0 0 0 
-0.102174 -0.279927 0.899929 0 0 0 
0.100659 -0.042461 0.759 0 0 0 
0.148884 -0.041562 0.785132 0 0 0 
0.148705 -0.171888 0.915188 0 0 0 
0.170071 -0.043526 0.821532 0 0 0 
-0.113692 -0.231431 0.847395 0 0 0 
-0.003693 -0.225403 0.822736 0 0 0 
0.172941 -0.045641 0.823798 0 0 0 
0.086039 -0.284262 0.87879 0 0 0 
0.126273 -0.32713 0.881312 0 0 0 
-0.027909 -0.044872 0.817932 0 0 0 
-0.028695 -0.140416 0.912847 0 0 0 
0.016766 -0.113961 0.818267 0 0 0 
0.043775 -0.041024 0.721233 0 0 0 
0.049237 -0.042341 0.720688 0 0 0 
0.165127 -0.046372 0.81102 0 0 0 
0.17011 -0.046098 0.822862 0 0 0 
0.0176 -0.068815 0.786251 0 0 0 
0.166836 -0.134588 0.908982 0 0 0 
-0.054385 -0.2023 0.825514 0 0 0 
0.157092 -0.046167 0.797143 0 0 0 
0.138268 -0.046255 0.774697 0 0 0 
0.137982 -0.181853 0.909941 0 0 0 
-0.043484 -0.319859 0.849235 0 0 0 
-0.056558 -0.310401 0.850715 0 0 0 
-0.036921 -0.048224 0.852281 0 0 0 
-0.025719 -0.046714 0.816756 0 0 0 
0.128396 -0.289429 0.909636 0 0 0 
-0.109436 -0.331996 0.968032 0 0 0 
-0.019067 -0.047399 0.806578 0 0 0 
-0.008876 -0.046634 0.791475 0 0 0 
0.066715 -0.107519 0.779122 0 0 0 
0.10095 -0.275889 0.913242 0 0 0 
-0.00882 -0.045588 0.787242 0 0 0 
0.094615 -0.275285 0.911715 0 0 0 
0.001046 -0.09317 0.826881 0 0 0 
0.043897 -0.095611 0.786183 0 0 0 
-0.004281 -0.046281 0.786193 0 0 0 
0.029676 -0.041902 0.747396 0 0 0 
0.052761 -0.0424 0.720941 0 0 0 
0.148324 -0.04634 0.787032 0 0 0 
0.148056 -0.170267 0.91158 0 0 0 
0.152681 -0.045762 0.792212 0 0 0 
0.151387 -0.164864 0.912815 0 0 0 
0.153453 -0.046752 0.795158 0 0 0 
0.151926 -0.161032 0.911143 0 0 0 
0.161305 -0.287276 0.934344 0 0 0 
0.165908 -0.046372 0.814225 0 0 0 
-0.036921 -0.049869 0.852281 0 0 0 
0.11528 -0.389422 0.880575 0 0 0 
-0.123609 -0.152362 0.878586 0 0 0 
0.006983 -0.046674 0.781081 0 0 0 
0.004985 -0.09541 0.820589 0 0 0 
0.012209 -0.046614 0.780091 0 0 0 
0.018145 -0.04798 0.777636 0 0 0 
0.085194 -0.249748 0.912 0 0 0 
0.021846 -0.046435 0.77545 0 0 0 
0.085194 -0.24452 0.911909 0 0 0 
0.025078 -0.046266 0.766704 0 0 0 
-0.050242 -0.20235 0.823122 0 0 0 
0.13643 -0.044662 0.771607 0 0 0 
0.137563 -0.186805 0.911183 0 0 0 
0.141784 -0.044952 0.776973 0 0 0 
0.142966 -0.18091 0.912365 0 0 0 
-0.03494 -0.051851 0.848905 0 0 0 
-0.076072 -0.149958 0.905374 0 0 0 
-0.032835 -0.051123 0.844783 0 0 0 
0.384299 -0.316567 0.95397 0 0 0 
0.079766 -0.046205 0.760151 0 0 0 
0.121824 -0.238159 0.912822 0 0 0 
0.084475 -0.0442 0.763726 0 0 0 
0.107243 -0.214347 0.910153 0 0 0 
0.124584 -0.234064 0.912881 0 0 0 
0.084984 -0.046993 0.761686 0 0 0 
0.090829 -0.046266 0.762151 0 0 0 
-0.100325 -0.248803 0.842562 0 0 0 
-0.091693 -0.249629 0.834413 0 0 0 
-0.014468 -0.237627 0.766941 0 0 0 
-0.023933 -0.249094 0.764455 0 0 0 
0.142496 -0.431313 0.910242 0 0 0 
0.095087 -0.046205 0.761274 0 0 0 
0.101057 -0.046266 0.761848 0 0 0 
-0.070053 -0.280483 0.831523 0 0 0 
0.106032 -0.046931 0.761457 0 0 0 
0.152602 -0.285842 0.93921 0 0 0 
0.111431 -0.047055 0.762565 0 0 0 
0.115668 -0.046993 0.762435 0 0 0 
0.118197 -0.199642 0.909541 0 0 0 
0.120052 -0.044084 0.762253 0 0 0 
0.121557 -0.196818 0.909237 0 0 0 
0.126722 -0.046569 0.766699 0 0 0 
0.086373 -0.235122 0.909002 0 0 0 
-0.029465 -0.05168 0.837301 0 0 0 
-0.030518 -0.118819 0.907594 0 0 0 
0.030557 -0.046438 0.746172 0 0 0 
0.054987 -0.046658 0.722881 0 0 0 
0.070232 -0.046655 0.745051 0 0 0 
0.110845 -0.046387 0.763543 0 0 0 
0.118746 -0.046326 0.763394 0 0 0 
0.04647 -0.417663 0.830849 0 0 0 
-0.004499 -0.223855 0.834879 0 0 0 
0.05804 -0.415087 0.839156 0 0 0 
0.171315 -0.048575 0.833518 0 0 0 
-0.028662 -0.05168 0.833591 0 0 0 
-0.028388 -0.050394 0.827734 0 0 0 
0.13594 -0.297449 0.908081 0 0 0 
-0.024115 -0.052918 0.82236 0 0 0 
-0.025747 -0.134411 0.904367 0 0 0 
0.130722 -0.292255 0.90719 0 0 0 
-0.022295 -0.049241 0.813484 0 0 0 
-0.026556 -0.142732 0.904582 0 0 0 
-0.134021 -0.218058 0.868447 0 0 0 
-0.131734 -0.253744 0.907776 0 0 0 
0.123765 -0.288792 0.906183 0 0 0 
-0.050097 -0.169147 0.905157 0 0 0 
-0.065481 -0.21681 0.779749 0 0 0 
0.065415 -0.04628 0.738817 0 0 0 
0.167303 -0.051227 0.823482 0 0 0 
0.166294 -0.132393 0.906957 0 0 0 
0.170348 -0.051916 0.828041 0 0 0 
0.166814 -0.129474 0.908589 0 0 0 
0.171315 -0.050151 0.833518 0 0 0 
-0.019256 -0.05253 0.812554 0 0 0 
0.121023 -0.28588 0.906123 0 0 0 
-0.018385 -0.051499 0.808828 0 0 0 
0.116551 -0.285564 0.906315 0 0 0 
0.03373 -0.046286 0.730099 0 0 0 
0.038351 -0.045968 0.724306 0 0 0 
0.052688 -0.045777 0.720274 0 0 0 
0.059719 -0.046413 0.728849 0 0 0 
0.159594 -0.129657 0.910618 0 0 0 
0.162962 -0.051626 0.811799 0 0 0 
-0.03148 -0.052358 0.843527 0 0 0 
-0.026635 -0.051665 0.826924 0 0 0 
-0.025833 -0.129657 0.907676 0 0 0 
-0.013641 -0.05195 0.80284 0 0 0 
0.111714 -0.280445 0.908122 0 0 0 
-0.008095 -0.050291 0.792516 0 0 0 
-0.00901 -0.061937 0.803008 0 0 0 
-0.005805 -0.048658 0.789667 0 0 0 
-0.002917 -0.090575 0.829142 0 0 0 
0.000997 -0.04835 0.784516 0 0 0 
0.149207 -0.078936 0.823353 0 0 0 
0.13358 -0.11978 0.878895 0 0 0 
0.129265 -0.047425 0.768667 0 0 0 
0.151928 -0.050545 0.792906 0 0 0 
0.152497 -0.061706 0.80339 0 0 0 
0.153075 -0.051433 0.797054 0 0 0 
0.150723 -0.158946 0.907871 0 0 0 
-0.0078 -0.087984 0.838631 0 0 0 
0.159257 -0.052208 0.806909 0 0 0 
0.137223 -0.172225 0.90481 0 0 0 
0.132315 -0.176065 0.906314 0 0 0 
-0.118456 -0.342967 0.98698 0 0 0 
-0.045728 -0.150298 0.923061 0 0 0 
0.162184 -0.051626 0.809333 0 0 0 
0.164144 -0.05253 0.817256 0 0 0 
-0.003522 -0.049973 0.787274 0 0 0 
0.141946 -0.051212 0.782201 0 0 0 
0.142183 -0.17472 0.907365 0 0 0 
0.145316 -0.049846 0.783699 0 0 0 
0.14644 -0.051474 0.787184 0 0 0 
-0.034321 -0.054615 0.848415 0 0 0 
-0.078415 -0.150322 0.902363 0 0 0 
0.022591 -0.051626 0.776545 0 0 0 
0.082986 -0.242314 0.908627 0 0 0 
0.0629 -0.094758 0.77876 0 0 0 
0.004992 -0.400289 0.82202 0 0 0 
0.023988 -0.04921 0.771893 0 0 0 
0.079504 -0.244048 0.906726 0 0 0 
-0.002161 -0.098653 0.844285 0 0 0 
0.063812 -0.09317 0.77188 0 0 0 
0.147631 -0.080505 0.817877 0 0 0 
0.004488 -0.240448 0.876723 0 0 0 
0.131819 -0.051227 0.770516 0 0 0 
0.132315 -0.186441 0.906183 0 0 0 
0.048091 -0.196764 0.875192 0 0 0 
0.13495 -0.049083 0.772435 0 0 0 
0.135368 -0.185323 0.908495 0 0 0 
0.137491 -0.051692 0.776758 0 0 0 
0.136809 -0.179722 0.907032 0 0 0 
0.059492 -0.088562 0.764041 0 0 0 
-0.065866 -0.154453 0.895569 0 0 0 
-0.026829 -0.053627 0.831571 0 0 0 
-0.024825 -0.124634 0.906918 0 0 0 
-0.061571 -0.405009 0.895702 0 0 0 
-0.14302 -0.154281 0.897301 0 0 0 
0.006274 -0.052974 0.784998 0 0 0 
0.016675 -0.051759 0.779242 0 0 0 
0.027061 -0.052367 0.771222 0 0 0 
0.119478 -0.050696 0.763 0 0 0 
0.120552 -0.195734 0.906741 0 0 0 
0.080197 -0.238322 0.905312 0 0 0 
0.006139 -0.134812 0.873877 0 0 0 
0.028073 -0.051491 0.767047 0 0 0 
0.204056 -0.395163 0.964946 0 0 0 
0.032936 -0.086996 0.776306 0 0 0 
0.085096 -0.050696 0.762626 0 0 0 
0.095462 -0.050762 0.764 0 0 0 
0.099857 -0.051491 0.763817 0 0 0 
0.1104 -0.061861 0.766496 0 0 0 
0.111956 -0.192079 0.894964 0 0 0 
0.101788 -0.050629 0.762151 0 0 0 
0.110361 -0.19743 0.896979 0 0 0 
0.032042 -0.166128 0.871747 0 0 0 
0.032802 -0.155783 0.870566 0 0 0 
0.111139 -0.051289 0.761314 0 0 0 
0.101921 -0.059434 0.762607 0 0 0 
0.138592 -0.052569 0.780192 0 0 0 
0.132169 -0.172415 0.905314 0 0 0 
0.137527 -0.176065 0.906496 0 0 0 
0.013633 -0.257379 0.871268 0 0 0 
0.027816 -0.050297 0.761495 0 0 0 
0.123206 -0.05396 0.76881 0 0 0 
0.140931 -0.155143 0.897546 0 0 0 
0.142739 -0.167418 0.906061 0 0 0 
0.123356 -0.186892 0.903785 0 0 0 
0.029268 -0.050297 0.75568 0 0 0 
0.029993 -0.050297 0.752482 0 0 0 
0.138006 -0.088242 0.817635 0 0 0 
0.059258 -0.087489 0.761041 0 0 0 
0.124698 -0.129362 0.871993 0 0 0 
0.031196 -0.052765 0.749801 0 0 0 
0.073054 -0.049965 0.751669 0 0 0 
0.054046 -0.053307 0.729365 0 0 0 
0.168148 -0.056458 0.829 0 0 0 
0.171762 -0.05528 0.835027 0 0 0 
0.173636 -0.05695 0.837746 0 0 0 
0.063998 -0.051217 0.740423 0 0 0 
0.125272 -0.087512 0.799093 0 0 0 
0.106083 -0.139846 0.868968 0 0 0 
0.069611 -0.049566 0.745569 0 0 0 
0.070264 -0.051468 0.750651 0 0 0 
0.167356 -0.056458 0.825193 0 0 0 
-0.026177 -0.339457 0.863747 0 0 0 
-0.030702 -0.057287 0.848434 0 0 0 
-0.08711 -0.275546 0.865025 0 0 0 
-0.013658 -0.05586 0.803668 0 0 0 
0.025571 -0.052367 0.774625 0 0 0 
0.084727 -0.238848 0.907881 0 0 0 
0.185059 -0.334641 0.936154 0 0 0 
0.06315 -0.087834 0.763192 0 0 0 
0.031003 -0.051491 0.755113 0 0 0 
0.035271 -0.050662 0.730668 0 0 0 
0.039206 -0.050316 0.726496 0 0 0 
0.063974 -0.052484 0.745698 0 0 0 
0.032878 -0.202747 0.872444 0 0 0 
0.07045 -0.053046 0.754 0 0 0 
0.032916 -0.192148 0.872444 0 0 0 
0.075388 -0.053468 0.759119 0 0 0 
0.031182 -0.089095 0.786695 0 0 0 
0.032042 -0.17029 0.871747 0 0 0 
0.140597 -0.429972 0.908181 0 0 0 
0.094606 -0.051424 0.763242 0 0 0 
0.116857 -0.053749 0.765656 0 0 0 
0.118809 -0.193999 0.905383 0 0 0 
0.133643 -0.052098 0.77491 0 0 0 
0.132169 -0.181916 0.906063 0 0 0 
0.161405 -0.056276 0.813371 0 0 0 
0.1622 -0.057332 0.817919 0 0 0 
0.010878 -0.23857 0.797759 0 0 0 
0.164749 -0.056623 0.822028 0 0 0 
0.168939 -0.056458 0.832807 0 0 0 
0.166633 -0.124076 0.901244 0 0 0 
0.174446 -0.05695 0.841968 0 0 0 
-0.008932 -0.056829 0.79736 0 0 0 
0.152693 -0.0569 0.798339 0 0 0 
-0.007285 -0.150169 0.876457 0 0 0 
-0.029993 -0.06156 0.849404 0 0 0 
-0.004314 -0.056473 0.791747 0 0 0 
0.008502 -0.056508 0.783627 0 0 0 
0.054226 -0.104202 0.781586 0 0 0 
0.012225 -0.056364 0.781667 0 0 0 
0.140806 -0.054336 0.782393 0 0 0 
-0.009733 -0.058572 0.801245 0 0 0 
0.141498 -0.094755 0.842812 0 0 0 
0.022562 -0.056744 0.775294 0 0 0 
0.126644 -0.055642 0.771695 0 0 0 
-0.011452 -0.070399 0.813448 0 0 0 
-0.014996 -0.1458 0.884557 0 0 0 
0.126402 -0.187132 0.902053 0 0 0 
0.135253 -0.056147 0.777548 0 0 0 
0.174663 -0.061343 0.843154 0 0 0 
0.161335 -0.112325 0.908618 0 0 0 
0.165411 -0.311709 0.919817 0 0 0 
0.176293 -0.060532 0.848787 0 0 0 
0.160111 -0.10516 0.905209 0 0 0 
0.16098 -0.108619 0.906679 0 0 0 
-0.027925 -0.060622 0.843952 0 0 0 
-0.027119 -0.060622 0.840385 0 0 0 
0.075289 -0.057024 0.759059 0 0 0 
0.084873 -0.057099 0.760616 0 0 0 
0.155529 -0.405321 0.918807 0 0 0 
0.090098 -0.056447 0.761747 0 0 0 
0.10938 -0.055137 0.76312 0 0 0 
0.112581 -0.197451 0.900714 0 0 0 
-0.092539 -0.347969 0.931941 0 0 0 
-0.144006 -0.167786 0.854909 0 0 0 
-0.030972 -0.233807 0.757688 0 0 0 
0.132155 -0.425242 0.900313 0 0 0 
0.116857 -0.055209 0.765656 0 0 0 
0.116165 -0.192505 0.902058 0 0 0 
0.097678 -0.215031 0.899283 0 0 0 
0.12084 -0.055353 0.767374 0 0 0 
0.005095 -0.104715 0.833449 0 0 0 
0.119624 -0.191644 0.90273 0 0 0 
-0.049323 -0.347865 0.891808 0 0 0 
0.121892 -0.056966 0.770174 0 0 0 
0.029036 -0.054199 0.760042 0 0 0 
0.14473 -0.057694 0.789822 0 0 0 
-0.013878 -0.070831 0.818043 0 0 0 
-0.014996 -0.139887 0.88488 0 0 0 
-0.032173 -0.155108 0.914452 0 0 0 
0.1414 -0.166002 0.902425 0 0 0 
0.120889 -0.187099 0.90234 0 0 0 
-0.114439 -0.338569 0.982689 0 0 0 
0.147557 -0.264606 0.953991 0 0 0 
-0.02268 -0.061901 0.828548 0 0 0 
-0.022965 -0.129943 0.897092 0 0 0 
0.029756 -0.054199 0.756628 0 0 0 
0.157712 -0.250716 0.983388 0 0 0 
0.076469 -0.248737 0.900351 0 0 0 
-0.054876 -0.170294 0.884398 0 0 0 
0.033157 -0.056521 0.755183 0 0 0 
0.033089 -0.055899 0.750317 0 0 0 
0.033804 -0.055899 0.746694 0 0 0 
0.051593 -0.054323 0.725933 0 0 0 
-0.094831 -0.389144 0.934676 0 0 0 
0.063766 -0.056499 0.750111 0 0 0 
0.163365 -0.098451 0.899136 0 0 0 
0.167659 -0.103472 0.902276 0 0 0 
0.168774 -0.060117 0.830385 0 0 0 
-0.101694 -0.242151 0.836722 0 0 0 
0.169573 -0.060117 0.834061 0 0 0 
0.167774 -0.063221 0.839416 0 0 0 
-0.030955 -0.062667 0.854267 0 0 0 
-0.025478 -0.063753 0.842192 0 0 0 
0.022269 -0.353439 0.820365 0 0 0 
-0.018567 -0.061376 0.817469 0 0 0 
-0.086691 -0.244541 0.819331 0 0 0 
-0.012885 -0.060476 0.808059 0 0 0 
0.085691 -0.357975 0.863543 0 0 0 
0.001003 -0.057694 0.789333 0 0 0 
0.031247 -0.05851 0.765719 0 0 0 
0.127301 -0.05667 0.775018 0 0 0 
0.112274 -0.07778 0.7799 0 0 0 
0.12436 -0.18278 0.903624 0 0 0 
0.075435 -0.233567 0.900421 0 0 0 
-0.107798 -0.326187 0.983042 0 0 0 
0.032983 -0.057674 0.759909 0 0 0 
-0.073044 -0.157395 0.880344 0 0 0 
0.100195 -0.057826 0.762123 0 0 0 
0.10645 -0.058054 0.764425 0 0 0 
0.161226 -0.061451 0.814484 0 0 0 
0.162011 -0.061451 0.818467 0 0 0 
0.163393 -0.062461 0.825986 0 0 0 
0.172016 -0.062082 0.84043 0 0 0 
-0.011339 -0.060476 0.804638 0 0 0 
0.035416 -0.055073 0.736685 0 0 0 
0.045533 -0.054548 0.726565 0 0 0 
0.052305 -0.056475 0.735184 0 0 0 
0.043803 -0.058743 0.745516 0 0 0 
0.017723 -0.337131 0.828516 0 0 0 
-0.026703 -0.129657 0.910932 0 0 0 
0.120685 -0.274983 0.91186 0 0 0 
0.137412 -0.290935 0.911183 0 0 0 
0.057231 -0.055073 0.736355 0 0 0 
0.041056 -0.058901 0.747902 0 0 0 
-0.013077 -0.295586 0.816726 0 0 0 
-0.029448 -0.067068 0.852209 0 0 0 
-0.015335 -0.064105 0.816704 0 0 0 
-0.082647 -0.30494 0.891029 0 0 0 
0.002516 -0.061459 0.788364 0 0 0 
0.009265 -0.06107 0.783819 0 0 0 
0.017466 -0.061582 0.781 0 0 0 
-0.091844 -0.395021 0.931807 0 0 0 
0.080507 -0.145583 0.852955 0 0 0 
-0.023285 -0.33355 0.854015 0 0 0 
0.054787 -0.056859 0.739133 0 0 0 
0.048803 -0.058743 0.745435 0 0 0 
0.136644 -0.061226 0.783785 0 0 0 
0.134554 -0.064308 0.784635 0 0 0 
0.141704 -0.061459 0.788425 0 0 0 
0.142243 -0.062449 0.791425 0 0 0 
0.120887 -0.061609 0.772183 0 0 0 
0.152485 -0.063553 0.80659 0 0 0 
0.173847 -0.066522 0.849312 0 0 0 
-0.029551 -0.068126 0.848866 0 0 0 
-0.024821 -0.067355 0.844315 0 0 0 
0.059094 -0.09612 0.777699 0 0 0 
0.064474 -0.103802 0.778747 0 0 0 
0.022591 -0.062008 0.776333 0 0 0 
0.028331 -0.062265 0.770939 0 0 0 
0.125653 -0.060291 0.773516 0 0 0 
0.130778 -0.060602 0.777849 0 0 0 
-0.019587 -0.066868 0.828061 0 0 0 
-0.019304 -0.129344 0.89058 0 0 0 
-0.050303 -0.207315 0.822998 0 0 0 
-0.098561 -0.178846 0.838161 0 0 0 
0.08887 -0.061699 0.76321 0 0 0 
0.096195 -0.061699 0.763878 0 0 0 
0.106589 -0.06251 0.76479 0 0 0 
0.167377 -0.066876 0.835894 0 0 0 
0.057555 -0.317349 0.830314 0 0 0 
-0.017826 -0.066222 0.822849 0 0 0 
-0.018536 -0.135034 0.890868 0 0 0 
0.02544 -0.061688 0.773667 0 0 0 
0.030469 -0.062103 0.768504 0 0 0 
-0.049661 -0.326079 0.871401 0 0 0 
-0.059221 -0.316655 0.871991 0 0 0 
0.111587 -0.087926 0.790272 0 0 0 
0.03453 -0.061457 0.762263 0 0 0 
0.037776 -0.060811 0.755305 0 0 0 
0.039624 -0.060326 0.750055 0 0 0 
0.142022 -0.145047 0.895994 0 0 0 
0.11843 -0.172686 0.894544 0 0 0 
0.058791 -0.061611 0.754557 0 0 0 
0.162503 -0.098451 0.894165 0 0 0 
0.171726 -0.097685 0.908259 0 0 0 
0.168536 -0.103472 0.898327 0 0 0 
0.069003 -0.061693 0.755749 0 0 0 
0.079766 -0.062183 0.760726 0 0 0 
0.084873 -0.061457 0.761 0 0 0 
0.090571 -0.062592 0.764968 0 0 0 
0.160245 -0.064499 0.821964 0 0 0 
0.117241 -0.176028 0.895334 0 0 0 
0.163277 -0.279466 0.954484 0 0 0 
0.070178 -0.093034 0.775484 0 0 0 
-0.08419 -0.178341 0.846242 0 0 0 
0.196142 -0.363926 0.963935 0 0 0 
0.162604 -0.066706 0.82443 0 0 0 
0.063885 -0.392524 0.840091 0 0 0 
0.058983 -0.390455 0.838059 0 0 0 
0.168984 -0.066876 0.84432 0 0 0 
-0.129585 -0.201557 0.838234 0 0 0 
-0.123974 -0.209536 0.839985 0 0 0 
-0.012949 -0.06696 0.812854 0 0 0 
0.122301 -0.103281 0.818104 0 0 0 
-0.121078 -0.227307 0.854948 0 0 0 
0.041056 -0.060326 0.747902 0 0 0 
0.043803 -0.060165 0.745516 0 0 0 
0.15984 -0.067331 0.821667 0 0 0 
0.116718 -0.174391 0.890635 0 0 0 
-0.040926 -0.337831 0.874674 0 0 0 
-0.007457 -0.06493 0.803815 0 0 0 
-0.003961 -0.228316 0.884333 0 0 0 
-0.069515 -0.30435 0.875904 0 0 0 
-0.027636 -0.070763 0.84484 0 0 0 
-0.070997 -0.155935 0.885181 0 0 0 
-0.015448 -0.069268 0.822064 0 0 0 
0.124624 -0.103914 0.822568 0 0 0 
-0.015899 -0.134429 0.888131 0 0 0 
-0.002807 -0.066646 0.797424 0 0 0 
0.015278 -0.064063 0.784435 0 0 0 
0.199902 -0.374257 0.95721 0 0 0 
0.164818 -0.33244 0.910647 0 0 0 
0.021156 -0.063654 0.779968 0 0 0 
-0.107312 -0.212307 0.811872 0 0 0 
0.059398 -0.098105 0.781941 0 0 0 
0.063727 -0.103802 0.778909 0 0 0 
0.029654 -0.062674 0.768365 0 0 0 
0.07379 -0.238992 0.897658 0 0 0 
0.043285 -0.064362 0.760869 0 0 0 
0.043783 -0.061857 0.757244 0 0 0 
0.086672 -0.062429 0.763333 0 0 0 
0.138678 -0.064471 0.790111 0 0 0 
0.171371 -0.071747 0.850733 0 0 0 
-0.118124 -0.172057 0.838858 0 0 0 
-0.061735 -0.316655 0.883587 0 0 0 
0.173017 -0.071747 0.855858 0 0 0 
-0.095238 -0.316657 0.934612 0 0 0 
0.007046 -0.065894 0.788233 0 0 0 
0.021987 -0.068377 0.781312 0 0 0 
0.023306 -0.067112 0.777091 0 0 0 
0.025472 -0.067678 0.775183 0 0 0 
0.040032 -0.108819 0.783557 0 0 0 
0.039859 -0.13499 0.808912 0 0 0 
-0.069872 -0.232125 0.776807 0 0 0 
-0.020824 -0.073974 0.844217 0 0 0 
0.04829 -0.119281 0.782667 0 0 0 
-0.018998 -0.072388 0.833435 0 0 0 
-0.005915 -0.067999 0.805482 0 0 0 
0.001777 -0.069689 0.79726 0 0 0 
0.145783 -0.139371 0.897744 0 0 0 
0.048993 -0.064193 0.759667 0 0 0 
0.127538 -0.06829 0.780626 0 0 0 
0.14998 -0.068084 0.807266 0 0 0 
0.155159 -0.069014 0.816848 0 0 0 
-0.008351 -0.073687 0.817667 0 0 0 
0.140695 -0.096353 0.838228 0 0 0 
0.059267 -0.172496 0.878575 0 0 0 
0.1624 -0.071696 0.834254 0 0 0 
0.026822 -0.404954 0.814151 0 0 0 
0.166772 -0.072561 0.849667 0 0 0 
-0.09706 -0.195771 0.812183 0 0 0 
0.174602 -0.073581 0.875391 0 0 0 
0.017032 -0.269943 0.874314 0 0 0 
0.058869 -0.068178 0.755405 0 0 0 
0.16164 -0.098451 0.889194 0 0 0 
0.084364 -0.065988 0.762758 0 0 0 
0.156897 -0.071004 0.819333 0 0 0 
0.038958 -0.070265 0.762435 0 0 0 
0.068002 -0.228901 0.886665 0 0 0 
0.157661 -0.072137 0.822575 0 0 0 
0.116905 -0.074902 0.780697 0 0 0 
-0.013205 -0.07459 0.828274 0 0 0 
-0.013314 -0.129898 0.885626 0 0 0 
-0.043381 -0.316688 0.840667 0 0 0 
0.001777 -0.07121 0.79726 0 0 0 
0.169494 -0.076929 0.845482 0 0 0 
0.171145 -0.076107 0.846323 0 0 0 
-0.024353 -0.076482 0.847439 0 0 0 
-0.010855 -0.079512 0.831032 0 0 0 
-0.007335 -0.124261 0.881607 0 0 0 
-0.082977 -0.197459 0.819 0 0 0 
-0.116765 -0.288747 0.939213 0 0 0 
-0.098044 -0.311293 0.939799 0 0 0 
0.04841 -0.348784 0.838192 0 0 0 
-0.127941 -0.172262 0.840224 0 0 0 
0.136168 -0.072275 0.79274 0 0 0 
-0.140223 -0.197742 0.858862 0 0 0 
-0.125156 -0.240909 0.883559 0 0 0 
-0.019248 -0.077386 0.843413 0 0 0 
0.133313 -0.103418 0.83422 0 0 0 
-0.017434 -0.077365 0.839262 0 0 0 
0.024205 -0.072017 0.781688 0 0 0 
0.17032 -0.076929 0.848953 0 0 0 
-0.051325 -0.326079 0.879674 0 0 0 
-0.060897 -0.316655 0.879722 0 0 0 
0.171145 -0.076929 0.852424 0 0 0 
0.110674 -0.167462 0.880629 0 0 0 
-0.013205 -0.076166 0.828274 0 0 0 
-0.076412 -0.171229 0.860333 0 0 0 
0.089723 -0.349348 0.855114 0 0 0 
-0.048881 -0.175164 0.884557 0 0 0 
-0.040908 -0.178198 0.896 0 0 0 
-0.080603 -0.176142 0.852541 0 0 0 
-0.010763 -0.074138 0.822758 0 0 0 
-0.005189 -0.073235 0.811932 0 0 0 
0.002564 -0.072603 0.803003 0 0 0 
0.005619 -0.074532 0.801239 0 0 0 
0.032206 -0.137233 0.837521 0 0 0 
0.110668 -0.071279 0.772878 0 0 0 
0.121392 -0.072669 0.780869 0 0 0 
0.131612 -0.073787 0.791921 0 0 0 
0.142913 -0.072242 0.801356 0 0 0 
0.093441 -0.352622 0.860426 0 0 0 
0.1551 -0.074409 0.821393 0 0 0 
-0.087233 -0.170607 0.860504 0 0 0 
-0.049213 -0.173805 0.890585 0 0 0 
0.165396 -0.172257 0.95597 0 0 0 
0.048421 -0.228382 0.880525 0 0 0 
0.15835 -0.07798 0.838998 0 0 0 
0.147399 -0.108881 0.879304 0 0 0 
-0.086708 -0.16213 0.864172 0 0 0 
0.164359 -0.077365 0.842087 0 0 0 
0.08594 -0.070449 0.764779 0 0 0 
0.074775 -0.183393 0.884365 0 0 0 
0.085126 -0.190566 0.884667 0 0 0 
0.089335 -0.070818 0.767 0 0 0 
0.090217 -0.190566 0.884817 0 0 0 
-0.066353 -0.317712 0.885829 0 0 0 
0.09535 -0.07091 0.768819 0 0 0 
0.116521 -0.166071 0.885374 0 0 0 
0.095416 -0.186553 0.885909 0 0 0 
-0.122927 -0.259652 0.911161 0 0 0 
0.15589 -0.075982 0.823878 0 0 0 
0.115853 -0.077432 0.782333 0 0 0 
-0.009223 -0.077555 0.822477 0 0 0 
-0.008995 -0.134744 0.880183 0 0 0 
0.101126 -0.287103 0.899673 0 0 0 
-0.04866 -0.176051 0.880305 0 0 0 
-0.007587 -0.077771 0.818871 0 0 0 
-0.009006 -0.139937 0.879635 0 0 0 
0.036025 -0.350197 0.8299 0 0 0 
-0.006786 -0.075244 0.814577 0 0 0 
-0.008995 -0.144811 0.879393 0 0 0 
0.043285 -0.073078 0.761244 0 0 0 
0.067384 -0.222914 0.886398 0 0 0 
-0.007726 -0.425823 0.833505 0 0 0 
-0.021789 -0.425778 0.850818 0 0 0 
-0.100885 -0.176099 0.842817 0 0 0 
0.058869 -0.072502 0.754676 0 0 0 
0.064836 -0.207693 0.884301 0 0 0 
0.07914 -0.070265 0.761928 0 0 0 
0.068233 -0.186553 0.886819 0 0 0 
0.152999 -0.075337 0.818848 0 0 0 
0.163554 -0.077365 0.838616 0 0 0 
0.148081 -0.102761 0.877943 0 0 0 
-0.015003 -0.078073 0.837913 0 0 0 
-0.003634 -0.077105 0.811909 0 0 0 
-0.001295 -0.076725 0.808973 0 0 0 
0.079163 -0.135586 0.817233 0 0 0 
-0.03122 -0.325955 0.838424 0 0 0 
0.013289 -0.074532 0.799931 0 0 0 
-0.091102 -0.220985 0.793743 0 0 0 
-0.088969 -0.369295 0.929998 0 0 0 
-0.114153 -0.368789 0.957032 0 0 0 
0.025571 -0.07239 0.780489 0 0 0 
-0.013947 -0.223502 0.779557 0 0 0 
0.069003 -0.071781 0.75588 0 0 0 
0.069853 -0.202391 0.885091 0 0 0 
0.085877 -0.072472 0.770505 0 0 0 
0.078161 -0.183393 0.882869 0 0 0 
0.085126 -0.186343 0.885091 0 0 0 
0.090892 -0.072203 0.774443 0 0 0 
0.09086 -0.183393 0.883253 0 0 0 
-0.05384 -0.334888 0.885669 0 0 0 
-0.066353 -0.319413 0.885829 0 0 0 
0.095351 -0.072203 0.774434 0 0 0 
0.117104 -0.163168 0.885263 0 0 0 
0.095308 -0.183809 0.884817 0 0 0 
0.111098 -0.072296 0.775939 0 0 0 
0.10913 -0.181684 0.888063 0 0 0 
0.134397 -0.074067 0.795327 0 0 0 
0.142792 -0.07682 0.807156 0 0 0 
0.120972 -0.077828 0.786516 0 0 0 
0.073177 -0.348085 0.845717 0 0 0 
0.146733 -0.077676 0.813635 0 0 0 
-0.119554 -0.229254 0.865923 0 0 0 
-0.019316 -0.082533 0.850426 0 0 0 
0.006394 -0.077684 0.802002 0 0 0 
0.01174 -0.075964 0.79941 0 0 0 
0.017146 -0.077684 0.800968 0 0 0 
-0.061309 -0.289428 0.845154 0 0 0 
0.079782 -0.311404 0.853877 0 0 0 
0.137716 -0.077684 0.80125 0 0 0 
0.140369 -0.076345 0.80361 0 0 0 
-0.130939 -0.271743 0.950791 0 0 0 
0.164159 -0.081669 0.849958 0 0 0 
-0.054906 -0.321756 0.874174 0 0 0 
0.164096 -0.082873 0.853347 0 0 0 
0.150145 -0.085067 0.837361 0 0 0 
0.150947 -0.085067 0.842038 0 0 0 
0.090731 -0.083091 0.780091 0 0 0 
0.07368 -0.084524 0.766306 0 0 0 
0.08464 -0.083728 0.778434 0 0 0 
0.077756 -0.084965 0.773081 0 0 0 
0.125966 -0.139817 0.875679 0 0 0 
0.122474 -0.145489 0.873871 0 0 0 
0.117721 -0.151668 0.874626 0 0 0 
0.11243 -0.156321 0.873374 0 0 0 
0.108245 -0.16132 0.873 0 0 0 
0.097976 -0.173419 0.872668 0 0 0 
0.090037 -0.176721 0.875061 0 0 0 
0.053186 -0.212873 0.876627 0 0 0 
0.048036 -0.218226 0.874607 0 0 0 
